# .PCD v0.7 - Point Cloud Data file format
VERSION 0.7
FIELDS x y z
SIZE 4 4 4
TYPE F F F
COUNT 1 1 1
WIDTH 1530
HEIGHT 1
VIEWPOINT 0 0 0 1 0 0 0
POINTS 1530
DATA ascii
0.60671079 17.549643 -2.1561127
0.47087654 12.542708 -1.9879694
0.66452479 17.537617 -2.1548939
0.51465929 12.540988 -1.9879694
0.72615355 17.545107 -2.1561127
0.55772662 12.523328 -1.9854665
0.78917789 17.582127 -2.1609874
0.66835219 13.914315 -2.206352
0.85332447 17.636765 -2.1680558
0.64883989 12.633662 -2.0036128
0.91344202 17.665558 -2.1719556
0.68751687 12.532701 -1.9879694
0.97630924 17.684065 -2.1746368
0.73437953 12.545873 -1.9904724
1.0389593 17.696404 -2.1765866
0.7784043 12.547175 -1.9910982
1.1046826 17.706343 -2.1782928
0.82207298 12.576063 -1.996104
1.1640402 17.712488 -2.1795115
0.86461276 12.553411 -1.9929754
1.2273654 17.730101 -2.1821926
0.90799654 12.544405 -1.9920367
1.2905484 17.743528 -2.1843865
0.95357031 12.564795 -1.9957911
1.3515676 17.727037 -2.1829238
0.99632704 12.575349 -1.9979812
1.410665 17.726416 -2.1834114
1.0426579 12.601325 -2.0026743
1.4741734 17.741167 -2.1858487
1.0902011 12.613164 -2.0051773
1.5371166 17.74778 -2.1873109
1.1358128 12.626987 -2.007993
1.6044806 17.767727 -2.1904798
1.1797018 12.620978 -2.0076802
1.6685277 17.783758 -2.1931608
1.2260418 12.640377 -2.0114346
1.7288684 17.760046 -2.1909673
1.2717294 12.651745 -2.0139375
1.7918441 17.763777 -2.1921859
1.3102448 12.6359 -2.0120604
1.8517556 17.797548 -2.1970608
1.3578238 12.642796 -2.0139375
1.9178213 17.798538 -2.1980357
1.4050226 12.645587 -2.0151892
1.9795039 17.78779 -2.1975482
1.4473959 12.644784 -2.0158148
2.0335097 17.737736 -2.1921859
1.490941 12.653646 -2.0180049
2.1098464 17.852758 -2.2072978
1.5356379 12.634371 -2.0158148
1.58096 12.638734 -2.017379
1.6248131 12.631179 -2.0170662
1.6670856 12.611722 -2.0148761
1.7134812 12.623444 -2.0176921
1.7575382 12.617385 -2.0176921
1.7993387 12.595529 -2.0151892
1.8490154 12.628263 -2.0214465
13.236535 72.405029 -3.8574743
14.225388 70.869194 -3.7881815
14.487062 70.889549 -3.7919497
3.9493706 17.814442 -2.2404461
3.9870796 17.692106 -2.2267969
4.0816112 17.821266 -2.2448335
4.0745111 17.509163 -2.2072978
4.2237377 17.867682 -2.2543392
4.2916479 17.875992 -2.2572641
4.3262782 17.747114 -2.2428837
4.3817554 17.692598 -2.2380087
4.4192872 17.580936 -2.2258217
4.5591297 17.873165 -2.2648201
4.6611233 18.023226 -2.2857816
3.4138038 9.5712175 -1.9752548
3.4471908 9.5592442 -1.9752548
6.3692398 17.623652 -2.3008933
3.4744885 9.5305519 -1.9718202
6.4198241 17.571478 -2.2969937
3.496192 9.4870491 -1.9653327
6.4604769 17.493099 -2.2896814
3.5142131 9.4343119 -1.9569372
6.0119472 16.105389 -2.1107774
3.5533512 9.4385233 -1.9603716
4.5566745 12.090797 -2.0464759
6.0232801 15.965438 -2.0951779
3.579987 9.4095497 -1.9569372
4.5847931 12.037897 -2.0402186
6.6270471 17.381824 -2.2840755
9.8222589 25.748922 -2.4110765
3.6269035 9.4336443 -1.9645696
4.6317496 12.034726 -2.0424087
6.6669888 17.304867 -2.2770069
9.8762436 25.621527 -2.4023609
3.6768713 9.4648495 -1.9737284
4.6730175 12.016643 -2.0420959
6.7259092 17.27779 -2.2765195
9.825346 25.226723 -2.3685443
3.7127585 9.4592648 -1.9752548
4.7308245 12.040707 -2.0489788
6.7918792 17.277561 -2.2794445
9.3982658 23.883347 -2.2454805
3.7513425 9.4651518 -1.979071
4.7408576 11.949671 -2.0361512
6.8374233 17.225422 -2.2755446
9.7834644 24.622307 -2.3179941
3.7754133 9.434433 -1.9752548
4.7371225 11.825693 -2.0176921
6.8849463 17.170128 -2.2714009
9.8873243 24.645203 -2.3232236
3.8142068 9.4357586 -1.9783077
4.7754121 11.80176 -2.0164404
6.9202428 17.085276 -2.2633576
9.8775158 24.374178 -2.3009117
3.1786623 7.7890844 -1.9422275
3.8500917 9.429657 -1.9798342
4.8292756 11.816107 -2.0217593
6.7581067 16.519014 -2.1914546
9.9127083 24.217861 -2.289407
3.1909816 7.7419062 -1.9332294
3.8837352 9.4179745 -1.9802158
4.845623 11.73892 -2.0114346
6.9915948 16.920965 -2.2480021
10.229347 24.744694 -2.342572
3.1910281 7.6659517 -1.9170328
3.9022388 9.3699274 -1.972965
4.8949342 11.74199 -2.0148761
7.0383906 16.867144 -2.2441022
9.9587355 23.853888 -2.2615173
3.2102149 7.6368022 -1.912534
3.9235082 9.3291025 -1.9672408
4.9412537 11.737576 -2.0170662
7.084125 16.811373 -2.2399588
10.014071 23.75289 -2.2552419
3.220103 7.5860848 -1.9026359
3.9660232 9.3388433 -1.9722018
5.0154285 11.798428 -2.0305195
7.1139956 16.718962 -2.2309406
3.2388852 7.5568876 -1.8981371
4.0040164 9.3375711 -1.9748732
5.0815125 11.838937 -2.0405314
7.1589956 16.663019 -2.2267969
10.104121 23.506676 -2.2385082
3.2505379 7.5115561 -1.889589
4.0412688 9.3343468 -1.977163
5.1149497 11.803002 -2.0374026
7.2684603 16.756302 -2.2426398
10.48276 24.154823 -2.3037004
3.2847898 7.5221658 -1.8949877
4.0722523 9.3165865 -1.9763998
5.1429844 11.760636 -2.0330224
7.2913551 16.657547 -2.2326467
10.511049 23.990337 -2.2914989
3.314173 7.5177851 -1.8967873
4.1031232 9.3030319 -1.9763998
5.1840086 11.742611 -2.0330224
7.2997074 16.519423 -2.2175348
10.588942 23.951702 -2.2911501
3.3356392 7.4954882 -1.8940878
4.1347756 9.2868576 -1.9760182
5.2281799 11.731663 -2.0342741
7.3379221 16.450327 -2.2116849
10.666796 23.901861 -2.2899301
3.3585875 7.4766898 -1.8922883
4.1711898 9.2813225 -1.9779261
5.2966504 11.774593 -2.0449116
7.3936672 16.420996 -2.2111976
10.741987 23.846312 -2.2881868
3.3886874 7.4737945 -1.8945377
4.2011313 9.2613411 -1.9767814
5.3368993 11.754234 -2.0445988
7.4336987 16.357132 -2.206079
10.773191 23.694414 -2.2772052
3.4180009 7.4690075 -1.8963374
4.2179041 9.2127047 -1.9695306
5.4001193 11.784019 -2.0530462
7.5362659 16.430325 -2.2194848
10.814293 23.566118 -2.2684896
3.4375169 7.4428773 -1.8927382
4.2434468 9.1836691 -1.9664776
5.4420528 11.766889 -2.053359
7.5894074 16.394909 -2.218266
10.943382 23.629465 -2.2782512
3.4577127 7.4184699 -1.889589
4.2837772 9.1865911 -1.9702938
5.4780784 11.737082 -2.0514817
7.62643 16.325151 -2.2124164
11.056162 23.656103 -2.2845263
3.4777827 7.3940101 -1.8864396
4.3049498 9.14849 -1.9653327
5.3717217 11.405149 -1.9967299
7.6867428 16.305616 -2.2133911
3.5085797 7.3923907 -1.8891391
4.3351755 9.129859 -1.9645696
5.5759907 11.732453 -2.0574262
7.7572608 16.307364 -2.2172909
3.5309975 7.3730664 -1.8873394
4.3534484 9.0863419 -1.9584637
5.6237464 11.727165 -2.0599291
7.8330312 16.319561 -2.2226534
3.5677371 7.3835058 -1.8931881
4.3731699 9.0463467 -1.9531209
5.6698132 11.718131 -2.0618064
7.8259277 16.159908 -2.2046165
3.6003187 7.3850207 -1.8967873
4.3883719 8.9974995 -1.9458703
5.7106795 11.698269 -2.0618064
7.8578925 16.08255 -2.1977918
11.978312 24.504898 -2.3863242
26.920969 55.025414 -3.2103925
3.6183362 7.3566694 -1.8927382
4.4223509 8.9874115 -1.947015
5.7253008 11.625099 -2.0524204
7.8981814 16.022974 -2.1934047
12.113132 24.563 -2.3960855
3.6725764 7.4016023 -1.9075849
4.4702835 9.005331 -1.9542658
5.722774 11.51836 -2.0370898
7.9461064 15.979313 -2.191211
3.6992645 7.3904786 -1.9080348
4.4805951 8.9475393 -1.945107
5.7505574 11.473589 -2.0327096
8.054348 16.056168 -2.2055917
3.7263849 7.3833919 -1.9093846
4.4799323 8.8687601 -1.9313688
5.8001537 11.477377 -2.036777
8.1353264 16.08428 -2.2131476
23.675888 46.748596 -2.7462773
3.7362192 7.3390799 -1.9012864
4.5342641 8.9028406 -1.942054
5.8455625 11.467621 -2.0386541
8.2031536 16.07877 -2.216316
3.7796197 7.3606634 -1.9102844
4.5859485 8.9271231 -1.9508314
5.8909783 11.457685 -2.0405314
8.2619429 16.055338 -2.2170475
3.8142543 7.3647285 -1.9147834
4.5999203 8.8779411 -1.9435806
5.9454904 11.465109 -2.0455372
8.3078804 16.007017 -2.214366
3.8372269 7.34619 -1.9134337
4.6336117 8.8670492 -1.9447254
6.0312414 11.531811 -2.0611808
8.4235487 16.092236 -2.2302091
3.8701146 7.3465428 -1.9170328
4.6389084 8.8021889 -1.9340401
6.07054 11.50894 -2.060868
8.4305487 15.969693 -2.2172909
3.8875055 7.3175015 -1.9129838
4.6695995 8.7859459 -1.9340401
6.1236615 11.512095 -2.065248
8.4610596 15.892856 -2.21071
3.9194682 7.3159099 -1.9161332
4.6956043 8.7609386 -1.932132
6.1694145 11.501092 -2.0671253
8.4629602 15.763534 -2.1968169
3.9440575 7.300468 -1.9156833
4.721488 8.7358599 -1.9302238
6.2048273 11.470798 -2.0655608
8.5141497 15.726916 -2.195842
3.9713798 7.2900801 -1.9165829
4.7425604 8.7020855 -1.9264078
6.2523947 11.462944 -2.0680637
8.5575857 15.67619 -2.1929171
4.0152273 7.3127427 -1.9260309
4.7766914 8.692358 -1.9279342
6.2884674 11.438687 -2.0674381
8.6162252 15.659898 -2.1946235
4.0652719 7.343008 -1.9377284
4.8111916 8.686779 -1.9302238
6.3264456 11.41321 -2.0668125
8.6823893 15.650559 -2.1975482
4.1013255 7.3474917 -1.9426774
4.854888 8.6939278 -1.9355664
6.395155 11.442788 -2.0761983
8.7747631 15.68772 -2.2070539
4.1317286 7.3416214 -1.944927
4.8986931 8.7008781 -1.9409093
6.4331222 11.416951 -2.0755727
8.8372602 15.670834 -2.2090039
4.1611791 7.3339319 -1.9467264
4.9203105 8.6683598 -1.9374746
6.4690361 11.387554 -2.0743213
8.8909311 15.638163 -2.20876
4.1838465 7.3142915 -1.9453768
4.9446902 8.6409063 -1.9351848
6.4517999 11.265487 -2.056175
8.9731083 15.655252 -2.2155848
4.2083812 7.2979527 -1.944927
4.9875703 8.6457043 -1.940146
6.4575057 11.184731 -2.0455372
9.0843077 15.721808 -2.2294779
4.2367663 7.2882733 -1.9462765
4.9950209 8.5892057 -1.9313688
6.4895506 11.150172 -2.0433471
9.0951729 15.614528 -2.2187536
4.2661247 7.2801642 -1.9480762
5.0428472 8.6022034 -1.938238
6.5204382 11.113818 -2.0408442
9.014926 15.353306 -2.1860926
4.2647524 7.2199235 -1.9359287
5.0748391 8.5879297 -1.9390012
6.5813179 11.128395 -2.0477273
9.0573454 15.30295 -2.1834114
4.2959061 7.2150426 -1.9386281
5.0997648 8.5617275 -1.937093
6.6868787 11.217343 -2.0683768
9.1330872 15.308743 -2.1887736
4.3341031 7.221724 -1.9444768
5.1326499 8.5489254 -1.938238
6.7188692 11.182082 -2.0661867
9.1977177 15.295485 -2.1914546
4.3310423 7.1598649 -1.9318796
5.1868563 8.5712662 -1.9473966
6.7752552 11.187285 -2.0715053
9.218133 15.20896 -2.183655
4.3549957 7.1430383 -1.9314297
5.2208314 8.5598145 -1.9489232
6.799859 11.13996 -2.0671253
9.2659874 15.168221 -2.1824365
4.3768449 7.1228108 -1.9300802
5.2568464 8.5515747 -1.951213
6.8200755 11.085871 -2.0614936
9.3136787 15.127329 -2.1812177
4.4109135 7.1224008 -1.9341292
5.2918363 8.5415154 -1.9531209
6.8014765 10.969661 -2.0442858
9.3972712 15.150346 -2.1890175
4.4334755 7.1060824 -1.9336793
5.3222132 8.5272493 -1.9538842
6.8189774 10.91689 -2.0386541
9.3328037 14.9356 -2.1624498
4.4487219 7.0781412 -1.9300802
5.3452349 8.5012445 -1.9519762
6.8372588 10.865792 -2.0333354
9.4218931 14.96173 -2.1709807
3.7389488 5.9075832 -1.8733324
4.466104 7.0510426 -1.9269307
5.3780274 8.4875097 -1.9531209
6.8793807 10.848532 -2.0345869
9.5017223 14.972325 -2.1773179
3.7564321 5.8896084 -1.8717794
4.4917345 7.0370569 -1.9273807
5.4129071 8.4769583 -1.955029
6.9076271 10.809476 -2.0317712
3.7769473 5.874177 -1.8712618
4.5110011 7.0131383 -1.9251312
5.4673166 8.4933815 -1.9634248
6.9365039 10.767477 -2.0286424
3.7932284 5.8544707 -1.8691912
4.520771 6.972033 -1.9183826
5.5161643 8.50389 -1.9702938
6.9955559 10.776338 -2.0348997
3.8146963 5.842813 -1.8697089
4.5525427 6.9676275 -1.921532
5.5726662 8.5256691 -1.9798342
7.0872011 10.834508 -2.0505433
3.8403757 5.8375316 -1.872297
4.5811219 6.9582052 -1.9233315
5.5829535 8.4766531 -1.972965
7.0977964 10.768471 -2.0427215
31.315847 47.420891 -2.9782302
3.8756716 5.8466349 -1.879544
4.6053839 6.9421706 -1.9233315
5.5918841 8.4260311 -1.9657143
7.1080236 10.702489 -2.0348997
3.8853281 5.8170047 -1.8743677
4.626339 6.9211936 -1.9219818
5.6168957 8.3999338 -1.964188
7.1442385 10.675972 -2.0345869
3.915318 5.8178296 -1.8790263
4.6493835 6.9033847 -1.921532
5.6417966 8.3737621 -1.9626614
7.1770458 10.644416 -2.0333354
3.9236755 5.7865405 -1.8733324
5.8891325 8.1775179 -1.9588453
7.5071917 10.41664 -2.0336483
10.163939 14.09265 -2.1334448
4.1659927 5.7487555 -1.90232
5.959147 8.214118 -1.9725834
7.5272574 10.367993 -2.0292683
10.200233 14.039422 -2.1307638
4.1974263 5.7497802 -1.9074965
4.9166875 6.7301149 -1.9242314
6.0028443 8.213871 -1.9775445
7.5190926 10.281064 -2.017379
10.256208 14.013345 -2.1322262
4.231204 5.7537704 -1.9137081
4.9401317 6.715344 -1.9246813
6.045445 8.2118406 -1.982124
7.5507989 10.252892 -2.0167532
10.263762 13.926519 -2.1241827
4.2433619 5.7303934 -1.9106023
4.9693413 6.7058878 -1.9269307
6.1030402 8.2327547 -1.992046
7.5429993 10.167771 -2.0051773
4.2564101 5.7062545 -1.9074965
5.0055356 6.7081151 -1.9323295
6.1646328 8.2554455 -2.0027313
7.556571 10.115804 -1.9998584
4.2718301 5.6874728 -1.9059435
5.0265813 6.6874857 -1.9314297
6.1801796 8.219265 -1.9989152
7.5823359 10.076735 -1.9973555
10.432891 13.854981 -2.1295452
4.2974811 5.680233 -1.9085318
5.0569539 6.6792192 -1.9341292
6.224236 8.2179918 -2.0038762
7.6246266 10.05965 -1.9992328
10.381624 13.687204 -2.1093147
4.3254809 5.6759515 -1.9121553
5.0778732 6.6584291 -1.9332294
6.235024 8.1727991 -1.9981518
7.6513023 10.021985 -1.9970427
10.358238 13.557812 -2.0949342
4.3582053 5.6776757 -1.9178492
5.1034603 6.6437521 -1.9341292
6.258728 8.1447601 -1.9966254
7.7247753 10.045323 -2.0070546
10.3837 13.493262 -2.0905468
4.3709092 5.6532569 -1.9147433
5.1266189 6.6258988 -1.9341292
6.2907271 8.1275196 -1.9977702
7.8069668 10.079206 -2.0192564
10.474522 13.513414 -2.0993216
4.4024873 5.6532059 -1.9199197
5.1473193 6.6048903 -1.9332294
6.3094049 8.0931225 -1.9947174
7.9040675 10.131324 -2.0352125
10.451995 13.387583 -2.0854285
4.4210005 5.6362853 -1.9194021
5.1727514 6.5899463 -1.9341292
6.3339782 8.0664186 -1.9935726
7.9601364 10.130075 -2.0405314
9.9563074 12.661304 -1.9776958
4.4382515 5.6177878 -1.9183668
5.1897445 6.5666394 -1.9323295
6.3681831 8.05196 -1.9954805
7.9605951 10.061793 -2.032084
10.12269 12.785412 -2.0023134
4.4568577 5.6030378 -1.9183668
5.2308388 6.5713558 -1.9390782
6.3801775 8.0123672 -1.9909012
7.5401783 9.4623432 -1.9163225
4.4667249 5.575386 -1.9142257
5.2439914 6.5408936 -1.9354788
6.397049 7.976264 -1.9874666
7.9589324 9.9166203 -2.0139375
10.707683 13.331968 -2.0995653
4.4946527 5.5702834 -1.9178492
5.2667899 6.5225496 -1.9354788
6.4322572 7.9630475 -1.9897563
7.9972181 9.8933916 -2.0148761
10.555655 13.049112 -2.0608108
4.5067606 5.5455637 -1.9147433
5.2784619 6.4905181 -1.9314297
6.4711671 7.9542513 -1.9931908
8.0055161 9.8332434 -2.0083058
10.647529 13.069133 -2.0698292
4.5309811 5.5357809 -1.9168139
5.2998533 6.4705443 -1.9309798
6.4988875 7.9316187 -1.9931908
8.0723591 9.8449526 -2.0164404
10.693088 13.031882 -2.0698292
4.5527363 5.5229115 -1.9178492
5.3298464 6.4610252 -1.9336793
6.5152903 7.8952546 -1.9897563
8.1205091 9.8334723 -2.019882
10.717018 12.968461 -2.0656855
4.5633478 5.4965825 -1.9142257
5.3561044 6.4468765 -1.9350289
6.5390444 7.8679366 -1.9886116
8.2053127 9.8658142 -2.0323968
10.697745 12.858085 -2.0537424
4.5852656 5.485867 -1.9157786
5.371201 6.4216065 -1.9327793
6.5739164 7.85675 -1.9912828
8.2151546 9.8112898 -2.0267651
10.78876 12.880368 -2.0630045
4.6071653 5.4750648 -1.9173316
5.3887024 6.3992867 -1.9314297
6.6239691 7.8634338 -1.9985336
8.2489214 9.7855005 -2.0270779
10.869498 12.885112 -2.0698292
4.6321974 5.4640374 -1.9194021
5.3946176 6.3611202 -1.925581
6.6463957 7.8316174 -1.9966254
8.3026323 9.7762833 -2.0314584
11.021089 12.972655 -2.0900595
4.6274099 5.4199181 -1.909567
5.4318218 6.3576012 -1.9305301
6.6864457 7.8232937 -2.0004416
8.3071737 9.7127171 -2.0242622
11.076303 12.941225 -2.0915217
4.6400051 5.3964076 -1.9069788
5.4603381 6.3459868 -1.9327793
6.7482958 7.8400793 -2.0107453
8.3191137 9.6582136 -2.0189433
11.066974 12.839334 -2.0812848
4.6701941 5.3933225 -1.9116375
5.4824548 6.326889 -1.9327793
6.7833357 7.8253779 -2.0130351
8.3475962 9.6231489 -2.0176921
11.084399 12.769141 -2.0761664
4.6826448 5.3697066 -1.9090494
5.4916921 6.2930312 -1.9282805
6.746057 7.7277012 -1.9939542
8.3876324 9.6013918 -2.0192564
11.110617 12.709445 -2.0727541
4.6949825 5.3460736 -1.9064611
5.5161996 6.2767501 -1.9291801
6.6861391 7.6053185 -1.9683858
8.4276228 9.5794678 -2.0208206
11.187703 12.707835 -2.0788474
4.6995387 5.3137336 -1.9007671
5.5496988 6.2705917 -1.9332294
6.6853142 7.5510654 -1.9603716
8.4950666 9.5884352 -2.0289552
11.507234 12.979145 -2.1297889
4.71035 5.2886395 -1.8976613
5.5871139 6.2686362 -1.9386281
6.6815839 7.4939775 -1.9515946
8.5442686 9.5764093 -2.0327096
11.315804 12.673848 -2.0861595
4.7339411 5.2779183 -1.8997319
5.6024551 6.2418437 -1.9363787
6.7732821 7.5436506 -1.9706753
8.6489401 9.6258698 -2.0496047
11.528542 12.82174 -2.1171145
4.7458625 5.2541924 -1.8971437
5.6085243 6.204905 -1.9309798
6.9035964 7.6350021 -2.0008233
8.7394724 9.6586113 -2.0630579
11.442656 12.63721 -2.0932281
4.7641726 5.2375956 -1.8971437
5.6222801 6.176641 -1.9282805
6.8694048 7.5440807 -1.9832687
8.7744675 9.6295033 -2.0633709
11.447906 12.554652 -2.0861595
4.7772059 5.2152362 -1.8950732
5.6569729 6.1713443 -1.9327793
6.8784423 7.5012498 -1.9783077
8.8267231 9.619195 -2.0677509
11.629082 12.668714 -2.1115084
4.7879276 5.1922636 -1.8924849
5.6919451 6.168303 -1.9377284
6.9099407 7.4856105 -1.9802158
8.843832 9.5739079 -2.0643096
11.727615 12.691311 -2.1217456
4.813004 5.1848536 -1.8955908
5.6858416 6.1208401 -1.9287304
6.9640994 7.4916387 -1.9882298
8.8795643 9.5488691 -2.065248
11.796191 12.676452 -2.1261327
4.8253794 5.1601219 -1.8930025
5.7162285 6.1084957 -1.9314297
7.0183482 7.4947262 -1.9958621
8.894249 9.4946337 -2.060555
11.767899 12.553478 -2.1127272
4.8442578 5.1424026 -1.8930025
5.7465973 6.0960126 -1.9341292
7.0687137 7.4958897 -2.0027313
8.9479713 9.4820814 -2.0649352
11.847903 12.546349 -2.1188207
4.8475552 5.1100435 -1.8873086
5.7614164 6.0712662 -1.9323295
7.0596852 7.4341574 -1.9928092
8.939909 9.4108257 -2.0558619
11.877136 12.494036 -2.1166267
4.8564682 5.0855579 -1.8842027
5.7906518 6.0595732 -1.9350289
7.0300326 7.3539414 -1.9775445
8.9945507 9.4024029 -2.060868
11.895971 12.426688 -2.1122396
4.8688354 5.063004 -1.8821322
5.8215208 6.0515738 -1.9386281
7.0801706 7.354815 -1.9844136
9.0078659 9.3540277 -2.0568006
11.934357 12.384315 -2.1117523
4.8905096 5.0501418 -1.8836851
5.8178997 6.003603 -1.9300802
7.1208301 7.3455634 -1.9886116
8.9733248 9.2500505 -2.041157
11.994873 12.35616 -2.1144333
4.9121556 5.0371876 -1.8852381
5.8592324 6.0041828 -1.9368286
7.0668879 7.2391791 -1.9664776
9.0345402 9.2483511 -2.0477273
12.029611 12.305696 -2.1129708
4.9215841 5.0117435 -1.8821322
5.9006448 6.0045409 -1.9435771
7.1003661 7.2228718 -1.9687674
9.0723124 9.2223902 -2.0489788
12.059955 12.250899 -2.1107774
4.9363327 4.991785 -1.8810968
5.9164143 5.980783 -1.9422275
7.1600671 7.2329216 -1.9783077
9.1097975 9.1992693 -2.0505433
12.044621 12.154442 -2.1010277
4.9528604 4.9753871 -1.8810968
5.9193721 5.9421506 -1.9363787
7.1604562 7.1854954 -1.9718202
9.1237173 9.1492329 -2.0464759
12.039302 12.064545 -2.0927405
4.9701986 4.9580669 -1.8810968
5.9262781 5.907692 -1.9318796
7.2007942 7.1756992 -1.9760182
9.1555967 9.1173306 -2.0464759
12.117924 12.058856 -2.0990777
4.9984517 4.9515672 -1.8852381
5.9648657 5.9047928 -1.9377284
7.1950955 7.1201406 -1.9676224
9.2028198 9.1005936 -2.0499175
12.076639 11.934155 -2.0846972
5.9993405 5.8975964 -1.9422275
7.2477531 7.119864 -1.9748732
9.2375212 9.0681887 -2.0502305
6.0404401 5.8946233 -1.9485261
7.2838058 7.1054869 -1.9779261
9.252142 9.0193424 -2.0464759
11.418063 11.122984 -1.9572219
6.0697503 5.8840528 -1.9516754
7.3649673 7.1346598 -1.9931908
9.3089657 9.014719 -2.0524204
12.131048 11.739396 -2.0727541
6.0621753 5.8357983 -1.9426774
7.4635625 7.1823454 -2.0134165
9.3446493 8.9862738 -2.053359
12.146186 11.672224 -2.0683665
6.0782785 5.8105655 -1.9413276
7.4985232 7.1657457 -2.016088
9.348815 8.9276819 -2.0474145
12.181115 11.624269 -2.0673916
6.1621261 5.8496876 -1.9615731
7.4836178 7.1016855 -2.0054026
9.3741865 8.8895588 -2.0461631
12.240347 11.599434 -2.0705605
6.1782556 5.8241301 -1.9602236
7.4983549 7.0660992 -2.0027313
9.3922195 8.8445921 -2.0433471
12.301003 11.575677 -2.0739727
6.1757841 5.7812209 -1.953025
7.5229764 7.0398803 -2.0027313
9.4172621 8.8063593 -2.0420959
12.335535 11.527243 -2.0729976
6.1902189 5.7543197 -1.9512255
7.5604501 7.0256033 -2.006166
9.4247866 8.7519236 -2.0370898
12.330583 11.442264 -2.0654416
6.2159939 5.7379651 -1.953025
7.5906973 7.0044966 -2.0076923
9.4741602 8.7363768 -2.041157
12.326656 11.358792 -2.0581295
6.2263684 5.7094188 -1.9503256
7.6035237 6.9673452 -2.0046394
9.492877 8.6955786 -2.0389671
12.304226 11.262898 -2.0481365
6.2477031 5.6889615 -1.9507756
7.6294885 6.9447365 -2.0054026
9.49541 8.6371317 -2.0330224
12.358151 11.233233 -2.0505736
6.2631879 5.6631951 -1.9494258
7.6956773 6.9535828 -2.016088
9.5401964 8.6141882 -2.0358384
12.398765 11.191354 -2.0508175
6.2403932 5.6011515 -1.9359287
7.7038312 6.9122529 -2.0118902
9.5996256 8.6072063 -2.0420959
12.39682 11.107422 -2.0437491
7.727911 6.8853211 -2.0118902
9.6207418 8.5687532 -2.0405314
12.452863 11.083412 -2.0469177
7.7360001 6.846643 -2.0080738
9.6269121 8.5141869 -2.0355256
12.470653 11.021468 -2.0435054
7.7672281 6.8260751 -2.0099821
9.6268997 8.4574413 -2.0295811
12.493711 10.968263 -2.0413115
7.8072748 6.8131256 -2.0141799
9.6637897 8.42729 -2.0308325
12.466477 10.863711 -2.0303433
9.6782475 8.3835554 -2.0280166
12.472415 10.796331 -2.0254686
9.7239199 8.3638983 -2.0314584
12.485942 10.732022 -2.021569
7.8979106 6.7502298 -2.0195224
9.7485523 8.3260517 -2.0305195
12.538424 10.701262 -2.0240064
7.9244204 6.7251587 -2.0202856
9.765502 8.2817535 -2.0280166
12.578734 10.659993 -2.0244937
9.780755 8.2361612 -2.0252008
12.612827 10.613466 -2.0240064
7.9109492 6.619277 -2.0050211
9.7048817 8.1145363 -2.0036128
12.65132 10.57065 -2.02425
7.9506197 6.6054215 -2.0092189
9.762023 8.1045876 -2.0095575
12.766059 10.591062 -2.0366805
9.78263 8.0641813 -2.007993
12.726341 10.483333 -2.0244937
9.8261328 8.0454597 -2.0114346
12.851684 10.515235 -2.0388744
9.8143044 7.9787149 -2.0033
12.892929 10.474067 -2.0396054
13.682763 0.88003188 -1.6835033
13.729342 0.834912 -1.6888655
80.141953 4.8034616 -1.4013933
10.941217 0.63086843 -1.735797
13.753973 0.78823483 -1.6915467
80.038437 4.5169034 -1.399299
10.9256 0.59170824 -1.7329811
13.74673 0.73968923 -1.690328
80.005798 4.2349315 -1.3984613
10.889923 0.55547178 -1.7270367
13.752951 0.69669598 -1.6908154
79.934822 3.979404 -1.3969953
10.838519 0.51492155 -1.7185892
13.713658 0.6467241 -1.685697
77.934692 3.6071391 -1.3618113
10.806703 0.47561586 -1.7132704
13.69005 0.59772128 -1.6825283
9.0019255 0.36627787 -1.751245
10.774819 0.43464261 -1.7079517
13.698003 0.55017227 -1.6832595
79.864204 3.1378605 -1.3951105
8.9992266 0.33470479 -1.7504818
10.728894 0.39529076 -1.7004429
13.650334 0.49814957 -1.6771661
79.854698 2.8584032 -1.3947614
8.9453993 0.30144009 -1.7397964
10.749887 0.36036915 -1.7035716
13.612231 0.45156062 -1.6722913
79.844193 2.5789738 -1.3944124
8.9306507 0.2712993 -1.7367436
10.75108 0.32283995 -1.7035716
13.631581 0.40458164 -1.674485
79.852715 2.3002286 -1.3944124
8.8884096 0.23740949 -1.728348
13.626958 0.35683656 -1.6737536
8.9088106 0.20683925 -1.732164
10.788663 0.24671166 -1.7092031
13.60436 0.30635557 -1.6708289
8.887887 0.17531219 -1.7279664
13.573545 0.2606267 -1.666929
8.8432713 0.14509892 -1.719189
13.600174 0.21364631 -1.6700976
8.8260756 0.11245835 -1.7157546
13.616716 0.16636842 -1.6720475
13.569594 0.11605511 -1.6661978
13.579844 0.068734303 -1.6674166
13.552204 0.023655748 -1.6640041
13.560149 -0.021300249 -1.6649791
8.6696491 -0.037828721 -1.6852252
13.540141 -0.068533398 -1.6625416
8.6792803 -0.068168297 -1.6871332
13.541804 -0.11581387 -1.6627855
8.6829157 -0.098508775 -1.6878965
13.513528 -0.1627482 -1.659373
8.682519 -0.12881722 -1.6878965
13.516849 -0.20997991 -1.6598606
8.6761274 -0.15901613 -1.6867516
13.478323 -0.25644377 -1.6552296
7.551548 -0.16345675 -1.7438205
8.6754866 -0.19081466 -1.6867516
13.532914 -0.30474162 -1.6620542
7.5918083 -0.192169 -1.7532685
8.6747675 -0.22109661 -1.6867516
7.5696645 -0.21805096 -1.7483196
8.6640873 -0.25260365 -1.6848437
7.5747852 -0.24201733 -1.7496693
7.5836325 -0.26880196 -1.7519189
7.578753 -0.29512048 -1.751019
13.483975 -0.53685808 -1.6569357
6.4234686 -0.27146927 -1.7226996
7.5776768 -0.32157347 -1.751019
6.4359908 -0.29450789 -1.7263231
7.6835141 -0.35428163 -1.7757636
6.4214168 -0.31630656 -1.7226996
13.533126 -0.68082255 -1.6637604
6.4222622 -0.33770046 -1.7232174
13.546525 -0.7289111 -1.6657103
6.4074793 -0.36047739 -1.7195939
13.52606 -0.77517068 -1.6635166
6.3174753 -0.37754023 -1.6957825
6.3990231 -0.40483493 -1.7180409
9.8070621 -0.66341966 -1.556836
13.455493 -1.1961366 -1.6586419
13.403794 -1.2387134 -1.6527921
13.486334 -1.2938352 -1.6635166
13.491846 -1.3395311 -1.6647354
13.481164 -1.3860091 -1.6640041
9.6861515 -1.0283121 -1.5427569
13.446635 -1.4299099 -1.6603481
9.7355204 -1.0679325 -1.5512043
13.480767 -1.4835277 -1.6652229
9.7649088 -1.107392 -1.5565232
13.479452 -1.5310234 -1.6657103
9.7829638 -1.1405799 -1.5599647
9.8259935 -1.1803764 -1.5674735
9.8492594 -1.2180625 -1.5718536
9.8273115 -1.2501919 -1.5690379
13.365911 -1.8451636 -1.656692
10.053635 -1.4201044 -1.6081465
13.373478 -1.8914224 -1.6583982
10.052781 -1.4540012 -1.6087722
13.351078 -1.9358143 -1.6564482
10.051552 -1.4896621 -1.6093979
13.348167 -1.9829899 -1.6569357
8.5778494 -1.2988092 -1.68637
10.018949 -1.5205899 -1.6050178
13.384338 -2.0361395 -1.662298
8.6178856 -1.3356594 -1.6951473
10.027244 -1.5576758 -1.6072079
13.400687 -2.0865119 -1.6652229
8.6131706 -1.3657334 -1.6951473
10.025647 -1.5932881 -1.6078336
13.338431 -2.1245337 -1.6583982
8.5870342 -1.3923341 -1.6909494
10.025874 -1.6292249 -1.6087722
13.360323 -2.1758668 -1.6620542
8.5414476 -1.4155591 -1.6829355
10.520937 -1.7473899 -1.6891795
13.372229 -2.225749 -1.6644917
8.5035477 -1.4397939 -1.6764479
10.536197 -1.7877392 -1.6926211
13.313496 -2.2637615 -1.6581545
8.5120115 -1.4718095 -1.6791192
10.533785 -1.8251811 -1.6932468
13.311379 -2.311239 -1.6588856
8.5145559 -1.5028781 -1.6806457
10.52735 -1.8619397 -1.6932468
13.289549 -2.3552656 -1.6571795
8.5131216 -1.5332863 -1.6814089
10.514955 -1.8976232 -1.6923083
13.291013 -2.4034066 -1.6583982
8.43048 -1.5488037 -1.6661443
10.506661 -1.9321246 -1.6919955
13.275161 -2.4460292 -1.6574231
8.4214382 -1.5760292 -1.6653811
10.501794 -1.9691519 -1.6923083
13.278247 -2.4945521 -1.6588856
8.4293852 -1.6079913 -1.6680523
10.457992 -1.9987524 -1.6863638
13.238265 -2.5349138 -1.6549859
8.4217939 -1.637031 -1.6676707
10.483913 -2.0416644 -1.6916825
13.221541 -2.5795879 -1.6540109
8.4198799 -1.6671811 -1.6684339
10.488348 -2.0805538 -1.6935596
13.212457 -2.6257238 -1.6540109
8.394763 -1.6926811 -1.6646177
10.463595 -2.1136322 -1.6907439
13.166244 -2.6643472 -1.6493798
8.3964968 -1.7235532 -1.6661443
10.452285 -2.1493485 -1.6901182
13.096591 -2.6978736 -1.641824
8.4115686 -1.7572682 -1.6703421
10.431183 -2.1829879 -1.6879282
13.11235 -2.7488678 -1.6449926
8.3977022 -1.7849867 -1.6688155
10.431228 -2.2210317 -1.6891795
13.112382 -2.7966921 -1.6462111
8.3376904 -1.8026724 -1.6581303
10.442718 -2.2616112 -1.6923083
13.005542 -2.8214033 -1.6340244
8.3751268 -1.8429234 -1.6669074
10.407351 -2.2939177 -1.6879282
12.952968 -2.8573761 -1.628662
8.3973818 -1.878576 -1.6726319
10.378077 -2.3254812 -1.6844865
12.952092 -2.9070055 -1.6298808
7.1150532 -1.6151946 -1.6844335
8.427146 -1.9161475 -1.6798825
10.374161 -2.36076 -1.6851122
12.930768 -2.9472933 -1.6284183
7.1321583 -1.6452773 -1.6898323
8.3824873 -1.9352497 -1.6722503
10.369706 -2.3978481 -1.6857381
12.999692 -3.010776 -1.6384115
7.1092954 -1.6661611 -1.6857833
8.3336296 -1.9546351 -1.6638545
10.367042 -2.4353857 -1.6866766
13.116636 -3.0861418 -1.6544983
7.0693121 -1.6828438 -1.6776849
8.3172073 -1.9814382 -1.6619464
10.34887 -2.4692664 -1.6851122
13.011179 -3.1093006 -1.6425551
7.0160408 -1.6960628 -1.6664374
8.34268 -2.0183065 -1.6684339
10.330589 -2.5030499 -1.6835479
12.925011 -3.1364419 -1.6330494
7.0346808 -1.7265815 -1.6722862
8.3260508 -2.0450742 -1.6665258
10.316034 -2.5376794 -1.6826093
12.82532 -3.1596963 -1.6218374
7.030808 -1.7503707 -1.672736
8.2750483 -2.0632014 -1.6577487
10.29223 -2.5680492 -1.6801064
12.830178 -3.2060592 -1.6237873
7.0265441 -1.7753794 -1.6731859
8.2700634 -2.0911121 -1.6581303
10.292777 -2.6063848 -1.6816708
12.826607 -3.2527773 -1.6247622
7.0014272 -1.7950562 -1.6686869
8.2551079 -2.1180155 -1.6566037
10.26831 -2.6383643 -1.6791677
12.803639 -3.2945626 -1.6232998
6.9743729 -1.8140886 -1.663738
8.270463 -2.1527529 -1.6611832
10.224631 -2.6652226 -1.6735362
12.770932 -3.3337204 -1.6206186
6.9849567 -1.8428971 -1.6677872
8.2534075 -2.1791034 -1.6592751
10.203808 -2.6978674 -1.671659
12.768812 -3.3808196 -1.6218374
6.9634209 -1.863238 -1.6641879
8.2438536 -2.207392 -1.6588935
10.19242 -2.7329576 -1.6713461
12.674496 -3.4032345 -1.6113566
6.9738016 -1.8921261 -1.668237
8.1887321 -2.2232945 -1.649353
10.194254 -2.7716281 -1.6732231
12.64147 -3.4417198 -1.6086755
6.9596386 -1.9143903 -1.6664374
8.196064 -2.2560332 -1.6524061
10.148336 -2.7972229 -1.6672788
12.617897 -3.482657 -1.607213
6.9547901 -1.9391956 -1.6668873
8.1654482 -2.2782977 -1.6478267
10.094751 -2.8204043 -1.6600827
12.601841 -3.5256107 -1.6067256
6.9723582 -1.9703499 -1.672736
8.1687803 -2.3099921 -1.6501163
10.086746 -2.8561628 -1.6603956
12.620014 -3.5782418 -1.6106254
6.9504504 -1.9903841 -1.6691369
8.1568918 -2.3374107 -1.649353
10.082411 -2.8929894 -1.6613343
12.561657 -3.6091156 -1.6047755
5.8912787 -1.7071157 -1.643501
6.9397168 -2.0135477 -1.668237
8.1109743 -2.3549209 -1.6417207
10.076043 -2.9292681 -1.66196
12.526111 -3.6462846 -1.6018509
5.8686008 -1.722772 -1.6388422
6.9363856 -2.0388584 -1.6691369
8.0782204 -2.3760173 -1.6367596
10.039229 -2.95661 -1.6575798
12.471416 -3.6776342 -1.5964885
5.873662 -1.7465508 -1.6419481
6.9273582 -2.0625024 -1.6686869
8.0585871 -2.4008381 -1.6344699
10.032633 -2.9927642 -1.6582055
12.450896 -3.718873 -1.5955136
5.8934264 -1.774842 -1.649195
6.918251 -2.0861082 -1.668237
8.0520391 -2.4295201 -1.6348516
9.9861975 -3.0169122 -1.652261
12.392237 -3.7485178 -1.5896639
5.8890433 -1.7959663 -1.6497126
6.9109273 -2.1102448 -1.668237
8.0097122 -2.4472861 -1.6279825
9.9019356 -3.0292153 -1.6400591
12.379077 -3.7917519 -1.5896639
5.8273625 -1.7994127 -1.6341835
6.8889966 -2.1285486 -1.6646378
8.0048714 -2.4763908 -1.6287457
9.8937225 -3.0626185 -1.6403719
12.432798 -3.8533502 -1.5981947
5.8250518 -1.8198797 -1.6352189
6.8908234 -2.1554914 -1.6668873
7.9928689 -2.5017493 -1.6279825
9.8773165 -3.0953631 -1.6394334
12.356769 -3.8771138 -1.5901513
5.8168221 -1.839619 -1.6347013
6.8776841 -2.1777668 -1.6655376
7.997189 -2.5337856 -1.6306537
9.8438568 -3.1226554 -1.6356789
12.32424 -3.9142144 -1.587714
5.8177242 -1.8622683 -1.6367717
6.8422041 -2.1928401 -1.6587892
7.9808173 -2.5592871 -1.6291273
9.8479443 -3.1618288 -1.6381818
12.378535 -3.9790797 -1.5964885
5.8332424 -1.8897089 -1.6429834
6.81041 -2.2088945 -1.6529404
7.9643655 -2.5847061 -1.6276009
9.8330898 -3.1949644 -1.6375562
12.409877 -4.037003 -1.6023383
5.811924 -1.9052449 -1.6388422
6.815619 -2.236908 -1.6560897
7.9403715 -2.6075904 -1.6245478
9.8181238 -3.2280347 -1.6369305
12.390052 -4.0784345 -1.601607
5.7997375 -1.9236962 -1.6372893
6.8133178 -2.2625275 -1.6574394
7.9256325 -2.6334345 -1.6234031
9.7936764 -3.2579224 -1.6347404
12.402108 -4.1304412 -1.6050195
5.7856612 -1.9414711 -1.6352189
6.7832108 -2.2788496 -1.6520406
7.8977828 -2.654829 -1.6195869
9.7466717 -3.2801175 -1.6287959
12.421476 -4.1851158 -1.6094066
5.8008013 -1.9691066 -1.6414305
6.7770596 -2.3031402 -1.6524904
7.9200654 -2.6931257 -1.6260743
9.7407722 -3.3160293 -1.6297344
12.393639 -4.2239666 -1.6077005
5.8176455 -1.997499 -1.6481597
6.7818794 -2.3312171 -1.6556398
7.9310389 -2.7277792 -1.6302722
9.7384768 -3.3532264 -1.6312988
12.331901 -4.2510295 -1.601607
5.7905626 -2.010823 -1.6424657
6.7829037 -2.3580756 -1.6578892
7.9177594 -2.7541571 -1.6295089
9.7416363 -3.3923965 -1.6338017
12.285122 -4.2829404 -1.5974635
5.7689266 -2.025903 -1.6383246
6.7966928 -2.3894937 -1.6632881
7.8766136 -2.7707033 -1.6230214
9.7073765 -3.4185069 -1.6300472
12.197082 -4.3000569 -1.5879577
5.7691016 -2.0486133 -1.6403952
6.7681127 -2.406024 -1.6583391
7.8779926 -2.8021288 -1.6253111
9.7009678 -3.4543595 -1.630986
12.178259 -4.3412733 -1.5874703
5.7691884 -2.0713503 -1.6424657
6.7468352 -2.4250202 -1.6551899
7.8293676 -2.8156588 -1.6172972
9.7018614 -3.4928849 -1.633176
12.219055 -4.4039493 -1.5947824
5.7582912 -2.0901575 -1.6414305
6.7273397 -2.4445632 -1.6524904
7.817646 -2.8423004 -1.6169155
9.7137403 -3.5355122 -1.6372433
12.190552 -4.4418178 -1.5930762
5.7817912 -2.1215582 -1.6502303
6.70962 -2.4646716 -1.6502409
7.7560806 -2.8506086 -1.6062301
9.6123552 -3.536658 -1.6222256
12.147032 -4.474052 -1.5894201
5.754426 -2.1343377 -1.6445363
6.7101097 -2.4914689 -1.6524904
7.7460833 -2.8776648 -1.6062301
9.544405 -3.5495327 -1.6128395
12.142503 -4.5205817 -1.5908825
5.7614126 -2.1598363 -1.6486773
6.688601 -2.5100837 -1.6493411
7.7286396 -2.901926 -1.6047038
9.5375051 -3.5849128 -1.6137782
12.132223 -4.5650368 -1.5916138
5.7664838 -2.1847253 -1.6523008
6.6597552 -2.5258143 -1.6443923
7.7313113 -2.9337618 -1.6073751
9.5655594 -3.633615 -1.6206613
12.127346 -4.6115913 -1.5930762
5.7479978 -2.2006962 -1.649195
6.6454391 -2.5469534 -1.6430426
7.7283554 -2.9635429 -1.6089015
9.4735165 -3.6365426 -1.6072079
12.040761 -4.6268382 -1.583814
5.7438841 -2.2221413 -1.6502303
6.6237869 -2.5652087 -1.6398932
7.6905046 -2.979862 -1.6031773
9.4312992 -3.6581595 -1.6022019
12.03194 -4.6717143 -1.584789
5.7288961 -2.2393646 -1.6481597
6.6347551 -2.5961254 -1.6448421
7.7038217 -3.0159929 -1.6081383
9.4239893 -3.6932211 -1.6031406
12.015559 -4.713685 -1.584789
5.7156534 -2.2572196 -1.6466069
6.6025481 -2.608803 -1.6389934
7.7023749 -3.0464764 -1.6100464
9.4135284 -3.725179 -1.6034535
12.010935 -4.7578902 -1.5862515
5.6901922 -2.2690055 -1.6414305
6.5825419 -2.6275001 -1.6362939
7.6904073 -3.0712738 -1.6096648
9.4059696 -3.760215 -1.6043921
11.996097 -4.8005252 -1.5864953
5.6947808 -2.2939065 -1.645054
6.5805602 -2.6533761 -1.6380936
7.6796398 -3.0980995 -1.6096648
9.4056091 -3.798203 -1.6065822
11.944299 -4.8282347 -1.5818642
5.6795816 -2.3108592 -1.6429834
6.5658436 -2.6741257 -1.6367439
7.6360521 -3.1115522 -1.6027957
9.3904638 -3.8302653 -1.6062692
11.875914 -4.8488889 -1.5750395
5.6661201 -2.3284676 -1.6414305
6.5636783 -2.6999934 -1.6385435
7.6995807 -3.1688225 -1.6184419
9.389822 -3.868288 -1.6084594
11.879103 -4.8986382 -1.5777208
5.6650949 -2.3511937 -1.643501
6.5506144 -2.7213933 -1.6376437
7.6975369 -3.1994474 -1.6203501
9.3561993 -3.8926942 -1.6050178
11.863763 -4.9408374 -1.5779644
5.665761 -2.3746881 -1.6460892
6.5074081 -2.7287827 -1.6290956
7.693562 -3.2293363 -1.6218765
9.3395967 -3.9221692 -1.6043921
11.841823 -4.9778438 -1.5772332
5.6525173 -2.3912053 -1.6445363
6.4906654 -2.7484415 -1.6272959
7.6665425 -3.2479391 -1.6184419
9.3058434 -3.9462631 -1.6009505
11.804276 -5.0106177 -1.5745521
5.6117401 -2.3982418 -1.6352189
6.4810319 -2.7710814 -1.6272959
7.6509771 -3.274472 -1.6176788
9.3094759 -3.9881229 -1.6040792
11.7338 -5.0291128 -1.5674837
5.6210718 -2.4254694 -1.6403952
6.4797773 -2.7986805 -1.6295455
7.6395001 -3.3011589 -1.6176788
9.2773666 -4.012753 -1.6009505
11.730748 -5.0763478 -1.5694335
5.5899715 -2.4340699 -1.6336659
6.4508095 -2.8115878 -1.6245965
7.6357093 -3.329613 -1.6192051
9.282114 -4.0513983 -1.6040792
11.777523 -5.1430254 -1.5779644
5.6137056 -2.4665818 -1.6429834
6.4271798 -2.8266878 -1.6209973
7.6168532 -3.3530824 -1.6176788
9.2595882 -4.0781751 -1.6025149
11.74315 -5.176898 -1.5757707
5.5940323 -2.4824388 -1.6398776
6.438148 -2.8597186 -1.6263962
7.5919538 -3.3753936 -1.6150075
9.2066774 -4.0952263 -1.5959446
11.678761 -5.1997194 -1.5696774
5.5496383 -2.4871242 -1.6295248
6.4365134 -2.8872843 -1.6286457
7.5640049 -3.3946395 -1.6115729
9.1952095 -4.1305618 -1.5965704
11.651485 -5.2363853 -1.5684586
5.509675 -2.4911873 -1.6202073
6.3949466 -2.8941503 -1.6205474
7.5562835 -3.4213235 -1.6123362
9.1634693 -4.1528778 -1.5934417
11.615977 -5.2667966 -1.5660212
5.4943528 -2.5062375 -1.6181368
6.3835411 -2.9145308 -1.6200974
7.5556121 -3.4512568 -1.6146259
9.1694088 -4.192277 -1.5968832
11.583081 -5.300704 -1.5640713
5.4943447 -2.5294404 -1.6207249
6.3750992 -2.9376118 -1.6205474
7.5542154 -3.4825411 -1.6169155
9.145752 -4.2201204 -1.5953189
11.562707 -5.3402715 -1.5638275
5.4819784 -2.5469759 -1.6196897
6.3524365 -2.9540949 -1.6173981
7.5651531 -3.5196545 -1.6218765
9.1094761 -4.2420125 -1.5915645
11.540397 -5.3789229 -1.5633401
5.4236345 -2.5440798 -1.6051958
6.3509068 -2.9803908 -1.6196476
7.545095 -3.5440202 -1.6203501
9.0974417 -4.2770529 -1.5921901
11.541309 -5.4284678 -1.5660212
5.4112291 -2.5613437 -1.6041605
6.341701 -3.0044823 -1.6200974
7.5149369 -3.5619271 -1.6165339
9.1145811 -4.3240232 -1.5978218
11.55182 -5.4852076 -1.5701648
5.4000616 -2.5803261 -1.6036428
6.3329339 -3.027441 -1.6205474
7.4947476 -3.5860574 -1.6150075
9.0666027 -4.3420429 -1.5921901
11.498589 -5.5092001 -1.5655338
5.378005 -2.5905714 -1.5995017
6.3175931 -3.0458863 -1.6191977
7.471067 -3.6036146 -1.6123362
9.0297918 -4.3593402 -1.5881228
11.449871 -5.5326185 -1.5613902
5.3719487 -2.6119549 -1.6005371
6.3174372 -3.0730345 -1.6218971
7.4684 -3.6361299 -1.6146259
8.9977713 -4.3846188 -1.5853071
11.42692 -5.5708127 -1.5609027
5.3853459 -2.6417511 -1.6072664
6.3096299 -3.0978863 -1.6227969
7.4098463 -3.639673 -1.6047038
9.0267296 -4.4377885 -1.5931287
11.398499 -5.6062851 -1.5596839
15.943022 -7.8483953 -1.5546842
5.374824 -2.6587384 -1.6067487
6.2836046 -3.111011 -1.6187478
7.4047728 -3.6677103 -1.6062301
9.0066538 -4.4650655 -1.5921901
11.422525 -5.6652217 -1.5655338
15.88657 -7.8861618 -1.5517209
5.3919086 -2.6894817 -1.6145133
6.2715101 -3.1309602 -1.6182978
7.3908124 -3.6913676 -1.6058486
8.9723616 -4.4851918 -1.5887486
11.443512 -5.7254887 -1.5711397
15.823315 -7.9237251 -1.5482345
5.3682108 -2.7022769 -1.6103721
6.2396569 -3.1423149 -1.6128991
7.3439236 -3.7016423 -1.5985978
8.9840813 -4.5322828 -1.5937545
11.228518 -5.6670132 -1.5443285
15.752878 -7.9573507 -1.5440512
5.3397975 -2.7113781 -1.6046782
6.2350469 -3.1686947 -1.6146986
7.3624592 -3.7432709 -1.605467
8.9382763 -4.5483856 -1.5884358
11.182907 -5.6955175 -1.5409162
15.698377 -7.9987226 -1.5414364
5.319984 -2.7247169 -1.6015723
6.2297082 -3.1920197 -1.6160485
7.3458543 -3.7671564 -1.6047038
8.9407206 -4.5870185 -1.5915645
11.142768 -5.7216887 -1.5379913
15.6615 -8.0489178 -1.5405649
5.314352 -2.7441163 -1.6026076
6.2306461 -3.2200086 -1.6191977
7.3333211 -3.7914953 -1.6047038
8.9421978 -4.6272779 -1.5946931
11.193236 -5.7970662 -1.5477408
15.562194 -8.0632296 -1.5334182
5.3321562 -2.7769277 -1.6108898
6.2141838 -3.2390361 -1.617848
7.3183002 -3.8161619 -1.6043221
8.9067287 -4.6484103 -1.5912516
11.176451 -5.8379407 -1.5482283
15.535718 -8.1184244 -1.5335925
5.3070374 -2.7874384 -1.6062311
6.1907654 -3.2543604 -1.6146986
7.2858214 -3.8316329 -1.6001244
8.8869505 -4.6776319 -1.5906258
11.117367 -5.8565636 -1.542866
15.50376 -8.1707478 -1.5332438
5.3143463 -2.8149896 -1.6114074
6.1896982 -3.2814271 -1.6173981
7.2828093 -3.8625607 -1.6024141
8.8723135 -4.7095504 -1.5909387
11.095103 -5.8944039 -1.5426223
15.462829 -8.2182703 -1.5320237
5.321528 -2.8426249 -1.6165838
6.178206 -3.3030131 -1.6173981
7.2415819 -3.8731439 -1.5963081
8.8540792 -4.7395597 -1.5906258
11.013216 -5.9002862 -1.5340914
15.408022 -8.2617083 -1.5295833
5.3144746 -2.8639431 -1.6176192
6.1614928 -3.3217847 -1.6160485
7.2238822 -3.897795 -1.5955449
8.8036232 -4.7541461 -1.5846813
10.978581 -5.9311452 -1.5321414
15.342283 -8.2955418 -1.5259228
5.2976556 -2.8787866 -1.6155485
6.1492767 -3.3443453 -1.6160485
7.1912622 -3.9126661 -1.5913471
8.7817707 -4.7820134 -1.5837427
11.084011 -6.0406899 -1.5499344
15.299238 -8.3414145 -1.5245281
5.3028216 -2.9056165 -1.6202073
6.1392741 -3.3667266 -1.6164982
7.1620698 -3.9292462 -1.5879126
8.7702188 -4.8154907 -1.5846813
11.115049 -6.1080241 -1.5572467
15.266537 -8.392849 -1.5241796
5.2672834 -2.9100962 -1.6124427
6.1274838 -3.3881366 -1.6164982
7.1019263 -3.9285641 -1.5776089
8.7343473 -4.8355503 -1.5812398
11.084979 -6.1419749 -1.5560279
15.212751 -8.4325647 -1.5217392
5.2284026 -2.9124823 -1.6036428
6.1128101 -3.4065399 -1.6155984
7.1070304 -3.96385 -1.5818065
8.7113628 -4.8606381 -1.5799882
11.024689 -6.1564403 -1.550422
15.150179 -8.4671478 -1.5184274
5.2187161 -2.9298043 -1.6036428
6.0957856 -3.4249935 -1.6142488
7.0972695 -3.9893198 -1.58257
8.6874561 -4.8871422 -1.5787368
11.035995 -6.2133899 -1.5550529
15.097714 -8.5036526 -1.5159869
5.208457 -2.9480033 -1.6036428
6.0905757 -3.4500928 -1.6160485
7.078177 -4.0111651 -1.581425
8.6737814 -4.9193869 -1.5793626
11.053946 -6.2744126 -1.5606589
15.050612 -8.546464 -1.5142438
5.1729665 -2.9518044 -1.5958784
6.0700336 -3.4664998 -1.6137989
7.0521998 -4.0290313 -1.5787537
8.6599855 -4.9515953 -1.5799882
11.05093 -6.3238053 -1.5633401
15.024146 -8.6009283 -1.5145924
5.177702 -2.9785132 -1.6005371
6.0443859 -3.4798884 -1.6101997
7.032989 -4.050684 -1.5776089
8.6323805 -4.9758749 -1.5781111
11.011593 -6.3524218 -1.5609027
14.973324 -8.6413689 -1.5125006
5.1572471 -2.9907541 -1.5974313
6.028831 -3.4990098 -1.6092998
6.9984331 -4.0633798 -1.5730294
8.6149588 -5.0059776 -1.5781111
10.982488 -6.3868284 -1.5599277
14.91896 -8.6795559 -1.5100603
5.1084166 -2.9863138 -1.5855255
6.0233083 -3.5239694 -1.6110994
6.9842067 -4.0877848 -1.5730294
8.5940237 -5.0340219 -1.5774853
10.966977 -6.429142 -1.5609027
14.876539 -8.7245226 -1.5088401
5.1129398 -3.012954 -1.5901842
6.0042562 -3.541013 -1.6092998
6.9698954 -4.1121387 -1.5730294
8.5559874 -5.0519376 -1.5737309
10.920542 -6.4532461 -1.5574903
14.833988 -8.7693024 -1.50762
5.0874438 -3.021904 -1.5855255
5.9975076 -3.5638909 -1.6106496
6.9723716 -4.1464777 -1.5768455
8.5357914 -5.0782628 -1.5731052
10.900788 -6.4904404 -1.557734
14.79473 -8.8159294 -1.5067484
5.0906558 -3.0466948 -1.5896666
5.9950614 -3.5908129 -1.613349
6.9282708 -4.151413 -1.5699766
8.5417309 -5.1222501 -1.5774853
10.956362 -6.5754414 -1.568946
14.753619 -8.8613644 -1.5057026
5.0877252 -3.0703232 -1.5922549
5.9975047 -3.6207821 -1.6173981
6.8928437 -4.1645951 -1.5653971
8.533042 -5.1596551 -1.5793626
10.948629 -6.6228929 -1.5711397
14.698736 -8.898365 -1.5032623
5.065423 -3.0810366 -1.5886314
5.9825292 -3.6417265 -1.6169481
6.9017401 -4.2029262 -1.5707397
8.5065451 -5.184269 -1.5777982
10.936146 -6.6702127 -1.5728458
14.65228 -8.940279 -1.5016935
5.0579309 -3.1007183 -1.5896666
5.9631367 -3.6585104 -1.6151485
6.8820081 -4.2239118 -1.569595
8.4799814 -5.2087612 -1.5762339
10.960146 -6.7374544 -1.5796705
14.607405 -8.9830217 -1.500299
5.0536509 -3.1224172 -1.5917372
5.9337549 -3.669055 -1.6106496
6.857204 -4.2417116 -1.5673052
8.4499903 -5.2310529 -1.5740438
10.892687 -6.7484889 -1.5733334
14.572572 -9.0318565 -1.4999503
5.0312414 -3.13289 -1.5881137
5.909977 -3.6814995 -1.6075002
6.8273602 -4.2562737 -1.5638705
8.4309216 -5.2579994 -1.5737309
10.8753 -6.7877264 -1.5740645
14.524058 -9.0721149 -1.4982072
5.055192 -3.1711156 -1.5989841
5.8987408 -3.7031426 -1.6079501
6.7965837 -4.2684503 -1.5600544
8.4008083 -5.2800379 -1.5715408
10.888508 -6.8488998 -1.5794269
14.487244 -9.1195726 -1.4976842
5.0239425 -3.1772316 -1.5927725
5.8973055 -3.731004 -1.6110994
6.7759166 -4.2901807 -1.5589095
8.3680506 -5.3023357 -1.5690379
10.904773 -6.9123721 -1.5852765
14.433452 -9.1562128 -1.4954182
4.9965296 -3.1843665 -1.5875961
5.8540177 -3.7337308 -1.6030012
6.7344198 -4.2969112 -1.5528038
8.3178577 -5.3113132 -1.5630934
10.887728 -6.9576387 -1.5864953
14.389651 -9.199028 -1.4941981
5.0113912 -3.2184911 -1.5958784
5.8301277 -3.7457497 -1.599852
6.7094712 -4.3140216 -1.550514
8.3217974 -5.3527598 -1.5671607
10.879618 -7.003376 -1.5886889
14.360803 -9.251359 -1.4945467
5.0217772 -3.248733 -1.6026076
5.8235598 -3.7703137 -1.6016515
6.6852412 -4.329844 -1.5482242
8.3212967 -5.3935952 -1.5706023
10.82513 -7.0218644 -1.5843016
14.32336 -9.2945919 -1.4938494
5.0136433 -3.2683527 -1.6036428
5.8054671 -3.7874246 -1.6003017
6.6569343 -4.3445692 -1.5451714
8.2842255 -5.4107261 -1.5671607
10.81883 -7.0715556 -1.5869827
14.267482 -9.3292675 -1.4914091
4.9844432 -3.2741668 -1.5979488
5.7856979 -3.8033843 -1.5985022
6.6564908 -4.3774881 -1.5486058
8.2487869 -5.42875 -1.564032
10.797396 -7.1114616 -1.5874703
14.214866 -9.365859 -1.4893173
4.9762053 -3.2936785 -1.5989841
5.7642627 -3.8181765 -1.5962527
6.649353 -4.4061193 -1.550514
8.2199097 -5.4509606 -1.5621547
10.787392 -7.1589875 -1.5896639
14.167148 -9.4055023 -1.4877486
4.9614635 -3.3088849 -1.5979488
5.7411742 -3.8317833 -1.5935532
6.6225033 -4.4216719 -1.5478426
8.174552 -5.4620614 -1.5571488
10.745834 -7.1855636 -1.5872264
14.130917 -9.4526815 -1.4873998
4.9562969 -3.3304932 -1.6000193
5.7326155 -3.8550625 -1.594903
6.6005125 -4.4403787 -1.5463161
8.148881 -5.4861493 -1.5558974
10.707517 -7.2141557 -1.5852765
14.081313 -9.4908161 -1.4856569
4.9446411 -3.3477736 -1.6000193
5.7239637 -3.878329 -1.5962527
6.5670962 -4.4512753 -1.5421184
8.1231441 -5.5101256 -1.5546459
10.662181 -7.2351336 -1.5821079
14.031616 -9.528718 -1.4839137
4.9335122 -3.3641527 -1.6000193
5.7336068 -3.9126673 -1.6025513
6.5620279 -4.4796696 -1.5444082
8.0868845 -5.524775 -1.5512043
10.569296 -7.2234077 -1.5718709
13.981851 -9.5628242 -1.4819963
4.9478083 -3.3979924 -1.6083016
5.7077518 -3.9228294 -1.5989521
6.5600796 -4.510303 -1.547461
8.0717735 -5.5538006 -1.5518301
10.514586 -7.2399931 -1.5674837
13.943463 -9.60818 -1.4814733
4.938498 -3.4183033 -1.609337
5.6924214 -3.9416199 -1.5985022
6.546731 -4.5365529 -1.5482242
8.051363 -5.5833478 -1.5518301
10.477834 -7.2687321 -1.5657774
13.906567 -9.654521 -1.4811248
4.9201975 -3.4311008 -1.6072664
5.6651521 -3.9535346 -1.594903
6.4986606 -4.536901 -1.540592
8.0431595 -5.619338 -1.55402
10.472272 -7.3218732 -1.568946
13.85966 -9.6974306 -1.4799045
4.8996863 -3.443557 -1.6046782
5.6592884 -3.9788902 -1.5971525
6.4579034 -4.5437446 -1.5348676
8.0225105 -5.6487799 -1.55402
10.451519 -7.3618135 -1.5696774
13.815955 -9.738862 -1.4788586
4.8787789 -3.4530895 -1.6015723
5.653316 -4.004252 -1.599402
6.4283824 -4.5549183 -1.531433
7.9682837 -5.6502151 -1.547137
10.419281 -7.3936558 -1.5687023
13.760839 -9.7684784 -1.4764183
4.8745608 -3.4757066 -1.6041605
5.6082759 -4.0003443 -1.5904039
6.4348154 -4.5932989 -1.5367758
7.9189591 -5.6547971 -1.5411925
10.393091 -7.4270129 -1.5684586
13.721794 -9.8129768 -1.4758953
4.8834076 -3.5065002 -1.6108898
5.5863652 -4.0142112 -1.5881544
6.4625897 -4.6455522 -1.5470794
7.8975687 -5.681251 -1.5408796
10.334882 -7.4400506 -1.5635839
13.671291 -9.8491688 -1.4741522
4.8846078 -3.5345676 -1.6155485
5.5723195 -4.0336862 -1.5881544
6.4169006 -4.6484761 -1.5402104
7.8734941 -5.7078404 -1.540254
10.300813 -7.4702535 -1.5623652
13.620703 -9.8851261 -1.4724091
4.8659964 -3.5470445 -1.6134779
5.5574975 -4.0540833 -1.5881544
6.4006352 -4.6708469 -1.5402104
7.8439507 -5.7282991 -1.5383767
10.26535 -7.5021005 -1.5611464
13.571639 -9.9220285 -1.4708403
4.8317852 -3.5480011 -1.6062311
5.5386019 -4.0699954 -1.5868047
6.3969464 -4.7024632 -1.5432632
7.8366365 -5.7650094 -1.5408796
10.229508 -7.5308266 -1.5596839
13.51767 -9.9551649 -1.4687486
4.8069458 -3.5556543 -1.6020899
5.518096 -4.0846663 -1.5850052
6.3852267 -4.7282696 -1.5444082
7.8132906 -5.7899776 -1.540254
10.206348 -7.5688529 -1.5601715
13.474837 -9.9963551 -1.467877
4.8068981 -3.5816464 -1.6062311
5.4975543 -4.0992436 -1.5832055
6.3796992 -4.7587461 -1.5470794
7.7819524 -5.8089433 -1.5380639
10.162372 -7.5913658 -1.5574903
13.430285 -10.036173 -1.4668311
4.8067269 -3.607681 -1.6103721
5.483212 -4.1184087 -1.5832055
6.3599095 -4.7786269 -1.5463161
7.771101 -5.8431954 -1.5399411
10.127879 -7.6208243 -1.5562717
13.380844 -10.072208 -1.4652623
4.7725301 -3.6081269 -1.6031252
5.4664164 -4.1342182 -1.5823058
6.3353634 -4.7948747 -1.5444082
7.7690043 -5.8820491 -1.5433825
10.091477 -7.6459761 -1.5545654
13.342429 -10.116447 -1.4649137
4.7866707 -3.643826 -1.611925
5.4488516 -4.1509123 -1.5814059
6.3272352 -4.8218064 -1.5463161
7.7390003 -5.9019451 -1.5415053
10.052102 -7.6715212 -1.5526155
13.284866 -10.14603 -1.4624733
4.7794147 -3.6660483 -1.6139956
