# .PCD v0.7 - Point Cloud Data file format
VERSION 0.7
FIELDS x y z
SIZE 4 4 4
TYPE F F F
COUNT 1 1 1
WIDTH 1214
HEIGHT 1
VIEWPOINT 0 0 0 1 0 0 0
POINTS 1214
DATA ascii
-0.5587002 0.44648343 -0.16511407
-0.64090019 0.51254022 -0.15951632
-0.57221115 0.45842746 -0.06414663
-0.55705988 0.44852832 -0.16511407
-0.63595986 0.5124222 -0.15875308
-0.5767284 0.4655273 -0.064843871
-0.51909107 0.42110205 -0.15431643
-0.62502062 0.50721639 -0.15646338
-0.57819182 0.47005129 -0.065192491
-0.51769179 0.42282116 -0.15431643
-0.63236696 0.51684958 -0.15875308
-0.53646666 0.43924925 -0.060660396
-0.51320267 0.42214981 -0.15341662
-0.63368154 0.52143866 -0.15951632
-0.55653036 0.45876825 -0.063100755
-0.51636636 0.42747897 -0.17962041
-0.51480174 0.42633516 -0.15431643
-0.64092731 0.53116381 -0.16180603
-0.56105739 0.46579883 -0.063798003
-0.54024786 0.45059714 -0.16241467
-0.62408781 0.5207088 -0.15798986
-0.58694088 0.4907586 -0.066935606
-0.52375019 0.439946 -0.15791564
-0.61616373 0.51793969 -0.15646338
-0.57912821 0.48767108 -0.066238366
-0.53403461 0.45193368 -0.16151486
-0.60536152 0.51247627 -0.15417367
-0.55614895 0.47164848 -0.063798003
-0.520666 0.44359174 -0.15791564
-0.60655689 0.51713371 -0.15493691
-0.56661934 0.48393854 -0.065192491
-0.53390408 0.45809606 -0.16241467
-0.60781819 0.52169967 -0.15570015
-0.56803286 0.48841283 -0.065541118
-0.54417992 0.47005495 -0.16601388
-0.59411114 0.51354724 -0.1526472
-0.57234925 0.49560961 -0.066238366
-0.53077358 0.46171963 -0.16241467
-0.59832895 0.52066976 -0.15417367
-0.54967672 0.47917581 -0.063798003
-0.51450032 0.45072842 -0.15791564
-0.58764893 0.51499134 -0.15188397
-0.55997884 0.49160725 -0.065192491
-0.55676359 0.49119857 -0.17141271
-0.60351139 0.5326286 -0.15646338
-0.57309777 0.50685561 -0.066935606
-0.52590936 0.46725249 -0.16241467
-0.61916167 0.5504908 -0.16104279
-0.56239796 0.50090235 -0.065889739
-0.49224797 0.44058439 -0.15251681
-0.59383398 0.53169519 -0.15493691
-0.57844436 0.51882631 -0.067981474
-0.49078432 0.44221425 -0.15251681
-0.58322597 0.5258767 -0.1526472
-0.56775862 0.51282918 -0.066935606
-0.42504403 0.3854064 -0.15373853
-0.51810116 0.4701151 -0.16151486
-0.58147883 0.52780789 -0.1526472
-0.56605488 0.51470912 -0.066935606
-0.5049482 0.46140441 -0.15791564
-0.59702206 0.54572934 -0.15722662
-0.56131595 0.51399094 -0.066586986
-0.4861266 0.44732943 -0.15251681
-0.59800237 0.55046934 -0.15798986
-0.57709485 0.53215498 -0.068678722
-0.50171477 0.46491826 -0.15791564
-0.58743823 0.54454547 -0.15570015
-0.57523394 0.53416604 -0.068678722
-0.48584133 0.45337144 -0.15341662
-0.57405275 0.5358752 -0.1526472
-0.55881315 0.52256238 -0.066935606
-0.51265776 0.48175472 -0.16241467
-0.57503974 0.54056501 -0.15341043
-0.57149059 0.53816903 -0.068678722
-0.49698278 0.46997321 -0.15791564
-0.56763399 0.53697211 -0.15188397
-0.57558185 0.54544348 -0.069375969
-0.47840467 0.45557839 -0.15251681
-0.58281392 0.55520016 -0.15646338
-0.57367438 0.54744935 -0.069375969
-0.49368975 0.47343123 -0.15791564
-0.56953818 0.54635835 -0.15341043
-0.56601363 0.54392642 -0.068678722
-0.51165932 0.4941037 -0.16421427
-0.56197959 0.54288697 -0.15188397
-0.57556546 0.55698311 -0.070073217
-0.49037242 0.47686639 -0.15791564
-0.56852466 0.55305892 -0.15417367
-0.55649483 0.54230255 -0.067981474
-0.50819749 0.49766359 -0.16421427
-0.56659061 0.55504012 -0.15417367
-0.56028676 0.5498237 -0.068678722
-0.51755762 0.51038104 -0.16781349
-0.56464958 0.55701464 -0.15417367
-0.55449045 0.55063272 -0.18041074
-0.55713058 0.55344766 -0.1526472
-0.57055718 0.56777579 -0.070421837
-0.46713099 0.46713093 -0.15251681
-0.5579713 0.55816603 -0.15341043
-0.57701606 0.57822567 -0.071467713
-0.49579394 0.49909312 -0.16241467
-0.5587858 0.56289691 -0.15417367
-0.55816507 0.56325388 -0.069375969
-0.48036316 0.48694757 -0.15791564
-0.5651871 0.57313424 -0.15646338
-0.56747591 0.57646048 -0.070770465
-0.49229756 0.50254226 -0.16241467
-0.54669976 0.55827117 -0.15188397
-0.56546021 0.57843786 -0.070770465
-0.49597579 0.50984484 -0.16421427
-0.54748511 0.56299102 -0.1526472
-0.56898892 0.58612639 -0.071467713
-0.48877728 0.50596678 -0.16241467
-0.55097157 0.57054782 -0.15417367
-0.56417388 0.58524007 -0.071119085
-0.47351742 0.49360707 -0.15791564
-0.52451736 0.54696155 -0.14730455
-0.55937189 0.58432758 -0.070770465
-0.47179168 0.49525684 -0.15791564
-0.55239069 0.58006722 -0.15570015
-0.54085618 0.56894815 -0.068678722
-0.48345205 0.51105744 -0.16241467
-0.53147757 0.56202161 -0.1503575
-0.56074977 0.59401363 -0.071467713
-0.46832263 0.49853849 -0.15791564
-0.54295194 0.57818478 -0.15417367
-0.44796962 0.48022032 -0.15161701
-0.53825241 0.577205 -0.15341043
-0.53114611 0.57318395 -0.18041074
-0.52022731 0.56179434 -0.14883102
-0.54908884 0.59400088 -0.070770465
-0.4631643 0.50333446 -0.15791564
-0.51570314 0.56062663 -0.14806779
-0.46140435 0.50494826 -0.15791564
-0.53228033 0.58271682 -0.15341043
-0.38570309 0.42477483 -0.15373853
-0.45963907 0.50655568 -0.15791564
-0.53024298 0.5845713 -0.15341043
-0.48134843 0.5342164 -0.16601388
-0.52031565 0.57766616 -0.15112074
-0.44049856 0.4923248 -0.15251681
-0.5052076 0.56484574 -0.14730455
-0.51902586 0.58418167 -0.18041074
-0.51887757 0.58422035 -0.15188397
-0.37973464 0.43011871 -0.15373853
-0.46541396 0.52753717 -0.16241467
-0.51943219 0.58897287 -0.1526472
-0.37823102 0.43144152 -0.15373853
-0.43531886 0.49691063 -0.15251681
-0.51737309 0.5907824 -0.1526472
-0.440144 0.50561422 -0.17962041
-0.47706774 0.54841691 -0.16781349
-0.50500172 0.58073306 -0.14959426
-0.43837637 0.50714755 -0.17962041
-0.41663697 0.48216805 -0.14711799
-0.50810373 0.58843625 -0.15112074
-0.43669218 0.50859851 -0.17962041
-0.46317211 0.53981972 -0.16421427
-0.51637495 0.6020394 -0.15417367
-0.47139543 0.55330014 -0.16781349
-0.50917834 0.59785974 -0.1526472
-0.44177163 0.52221119 -0.15791564
-0.51215935 0.60562968 -0.15417367
-0.50261635 0.59835851 -0.18041074
-0.48731765 0.5803507 -0.14730455
-0.43811518 0.52528256 -0.15791564
-0.50037545 0.60014313 -0.15188397
-0.4213635 0.50879806 -0.15251681
-0.4907659 0.59281236 -0.14959426
-0.44681445 0.54338056 -0.16241467
-0.49617344 0.60362178 -0.15188397
-0.4498449 0.55097485 -0.16421427
-0.49406353 0.60534996 -0.15188397
-0.43073827 0.53134847 -0.15791564
-0.48205891 0.59486854 -0.14883102
-0.4459874 0.55410194 -0.16421427
-0.48982537 0.60878444 -0.15188397
-0.42701828 0.53434265 -0.15791564
-0.48279598 0.60435486 -0.1503575
-0.45189759 0.56933582 -0.16781349
-0.48800325 0.61526549 -0.1526472
-0.48368084 0.61376619 -0.18041074
-0.49082005 0.62304914 -0.15417367
-0.43830517 0.56019843 -0.16421427
-0.46687087 0.59692293 -0.14730455
-0.47938412 0.61712795 -0.18041074
-0.47441736 0.61095405 -0.1503575
-0.43448183 0.56316894 -0.16421427
-0.47707641 0.61882585 -0.15188397
-0.4751724 0.62037671 -0.18041074
-0.47502181 0.62040442 -0.15188397
-0.43063867 0.56611311 -0.16421427
-0.47285315 0.62205887 -0.15188397
-0.35349753 0.46808636 -0.13542055
-0.47067901 0.62370557 -0.15188397
-0.41021481 0.54734862 -0.15791564
-0.45897481 0.6128552 -0.14883102
-0.46635476 0.62703216 -0.18041074
-0.4755747 0.63966185 -0.15493691
-0.42249274 0.57221812 -0.16421427
-0.47567087 0.64447713 -0.15570015
-0.42970893 0.5862636 -0.16781349
-0.46181476 0.63029712 -0.15188397
-0.45987341 0.63180101 -0.18041074
-0.45048153 0.61912501 -0.14883102
-0.40069631 0.55435473 -0.15791564
-0.45302504 0.62698084 -0.1503575
-0.41466385 0.57791662 -0.16421427
-0.45541084 0.63493961 -0.15188397
-0.3968167 0.55713844 -0.15791564
-0.44408247 0.62373078 -0.14883102
-0.39486936 0.55852026 -0.15791564
-0.45312124 0.64138913 -0.1526472
-0.44877696 0.63973063 -0.18041074
-0.45764297 0.65261126 -0.15493691
-0.40209904 0.57725382 -0.16241467
-0.43741667 0.62842345 -0.14883102
-0.37348345 0.54018372 -0.15161701
-0.44649276 0.64602089 -0.1526472
-0.41129109 0.59932822 -0.16781349
-0.45534104 0.66376483 -0.15646338
-0.40042031 0.58787525 -0.16421427
-0.43534225 0.63938546 -0.1503575
-0.43776953 0.64731282 -0.18041074
-0.43310755 0.64090133 -0.1503575
-0.38120475 0.56793451 -0.15791564
-0.43535545 0.64885515 -0.15188397
-0.36409426 0.54655623 -0.15161701
-0.44396928 0.66671193 -0.15570015
-0.39227676 0.59334028 -0.16421427
-0.44163942 0.66825747 -0.15570015
-0.38602954 0.58812141 -0.16241467
-0.43069041 0.65666169 -0.1526472
-0.37333798 0.57313651 -0.15791564
-0.41994011 0.6449247 -0.14959426
-0.37133518 0.57443613 -0.15791564
-0.41129333 0.63649291 -0.14730455
-0.38405865 0.59869248 -0.16421427
-0.41754699 0.65114605 -0.1503575
-0.38196659 0.60002935 -0.16421427
-0.43635145 0.6857264 -0.15798986
-0.35820436 0.56662345 -0.17962041
-0.4173362 0.66067129 -0.18041074
-0.41928014 0.66400528 -0.1526472
-0.38615564 0.61582351 -0.16781349
-0.41487512 0.66213745 -0.15188397
-0.34694147 0.55760193 -0.15161701
-0.40645599 0.65350682 -0.14959426
-0.35932514 0.58202416 -0.15791564
-0.41860691 0.67831177 -0.15493691
-0.37154239 0.60653937 -0.16421427
-0.4141863 0.67642015 -0.15417367
-0.40585899 0.66778332 -0.18041074
-0.40774497 0.67115039 -0.1526472
-0.36729887 0.60911846 -0.16421427
-0.39931893 0.66248101 -0.1503575
-0.40118703 0.67060047 -0.18041074
-0.3949886 0.66050106 -0.14959426
-0.34911275 0.58820659 -0.15791564
-0.39067721 0.65849876 -0.14883102
-0.36090028 0.61293125 -0.16421427
-0.39235976 0.66662621 -0.1503575
-0.35875836 0.61418736 -0.16421427
-0.38607055 0.66121018 -0.14883102
-0.35661241 0.61543584 -0.16421427
-0.39359996 0.67954242 -0.1526472
-0.34086603 0.59302366 -0.15791564
-0.39122564 0.68091214 -0.1526472
-0.33889773 0.59415066 -0.15791564
-0.39091048 0.68561667 -0.15341043
-0.38492081 0.68006766 -0.18041074
-0.39443508 0.69716173 -0.15570015
-0.32148996 0.57265395 -0.15161701
-0.38035154 0.67805552 -0.15112074
-0.34592551 0.62150562 -0.16421427
-0.39134553 0.70339739 -0.15646338
-0.33056897 0.59882456 -0.15791564
-0.36612347 0.66350508 -0.14730455
-0.37526837 0.68544126 -0.18041074
-0.37888503 0.69233477 -0.15341043
-0.37287328 0.68674707 -0.18041074
-0.37646616 0.69365299 -0.15341043
-0.33721444 0.62627482 -0.16421427
-0.37218177 0.69150531 -0.1526472
-0.32228109 0.60332549 -0.15791564
-0.37161437 0.69626433 -0.15341043
-0.33294371 0.62855566 -0.16421427
-0.36379158 0.68708241 -0.15112074
-0.30547649 0.58135396 -0.15161701
-0.3796432 0.72311306 -0.15875308
-0.36095211 0.69308698 -0.18041074
-0.3716774 0.71398538 -0.15646338
-0.31382617 0.60776627 -0.15791564
-0.3619791 0.70132184 -0.15341043
-0.31170261 0.60885811 -0.15791564
-0.35952896 0.70258111 -0.15341043
-0.32203364 0.63421452 -0.16421427
-0.34463903 0.67932022 -0.14806779
-0.31631315 0.62837213 -0.16241467
-0.35650319 0.70851958 -0.15417367
-0.30541658 0.61203551 -0.15791564
-0.34526491 0.69219136 -0.1503575
-0.32228705 0.65152574 -0.16781349
-0.35502911 0.71803051 -0.15570015
-0.34403324 0.70163894 -0.18041074
-0.3456082 0.70516229 -0.1526472
-0.29323202 0.60281628 -0.17962041
-0.29899055 0.61520028 -0.15791564
-0.34314442 0.70636445 -0.1526472
-0.29684138 0.61624014 -0.15791564
-0.33727005 0.70048231 -0.15112074
-0.29468861 0.6172725 -0.15791564
-0.33989608 0.71228641 -0.15341043
-0.33432648 0.7063157 -0.18041074
-0.33740747 0.71346861 -0.15341043
-0.33185911 0.70747834 -0.18041074
-0.32837236 0.70036292 -0.1503575
-0.27681679 0.59553409 -0.15161701
-0.33254322 0.71574873 -0.15341043
-0.30408514 0.66021734 -0.16781349
-0.32675892 0.70977175 -0.15188397
-0.29218182 0.6399495 -0.16241467
-0.32916778 0.72162533 -0.15417367
-0.29315871 0.64806765 -0.16421427
-0.32677314 0.72271281 -0.15417367
-0.27017331 0.60285079 -0.15251681
-0.32103783 0.71668231 -0.1526472
-0.31709453 0.71421784 -0.18041074
-0.31216365 0.70344257 -0.14959426
-0.28646964 0.65105212 -0.16421427
-0.31128657 0.70812243 -0.1503575
-0.31222564 0.71635967 -0.18041074
-0.31677747 0.72714961 -0.15417367
-0.28191775 0.65303606 -0.16421427
-0.30801493 0.71383005 -0.15112074
-0.26891056 0.62893069 -0.15791564
-0.30860722 0.72212213 -0.1526472
-0.27431238 0.6478104 -0.16241467
-0.29996312 0.70873106 -0.14959426
-0.27506363 0.65595251 -0.16421427
-0.30052274 0.71701652 -0.15112074
-0.26242015 0.63166636 -0.15791564
-0.30403879 0.73256737 -0.15417367
-0.2705923 0.65780962 -0.16421427
-0.29414243 0.71541381 -0.1503575
-0.26535442 0.65153098 -0.16241467
-0.2931236 0.72007304 -0.15112074
-0.26599365 0.65968257 -0.16421427
-0.29354388 0.72837549 -0.1526472
-0.26946867 0.6750862 -0.16781349
-0.28808942 0.72210187 -0.15112074
-0.24276277 0.61440128 -0.15251681
-0.28989395 0.73405904 -0.15341043
-0.24913386 0.63702357 -0.15791564
-0.29161817 0.74603778 -0.15570015
-0.23565374 0.60881168 -0.1507172
-0.28051203 0.72507906 -0.15112074
-0.24468082 0.63874722 -0.15791564
-0.27925572 0.72976953 -0.15188397
-0.2423379 0.63963979 -0.15791564
-0.27809727 0.73441184 -0.1526472
-0.25527182 0.68058139 -0.16781349
-0.29082146 0.77577323 -0.16104279
-0.24487349 0.65950173 -0.16241467
-0.27185425 0.73255897 -0.15188397
-0.24256976 0.66035259 -0.16241467
-0.2679424 0.72981739 -0.15112074
-0.21763466 0.59892201 -0.14711799
-0.26673338 0.73443896 -0.15188397
-0.23136249 0.643691 -0.15791564
-0.28275296 0.78709978 -0.16256927
-0.23564148 0.66285646 -0.16241467
-0.27211645 0.76588243 -0.15798986
-0.22686303 0.64529049 -0.15791564
-0.26553622 0.75571424 -0.15570015
-0.23356776 0.67184806 -0.16421427
-0.25774163 0.74180055 -0.1526472
-0.21348378 0.62105799 -0.15161701
-0.2628054 0.76497656 -0.15722662
-0.228872 0.67346215 -0.16421427
-0.25760812 0.75845337 -0.15570015
-0.23148443 0.6890353 -0.16781349
-0.26245761 0.78168184 -0.16027956
-0.21556666 0.6491515 -0.15791564
-0.25354365 0.76396 -0.15646338
-0.21329923 0.64990008 -0.15791564
-0.24965137 0.76110953 -0.15570015
-0.21114305 0.65060383 -0.15791564
-0.24712622 0.76193315 -0.15570015
-0.21720158 0.67731613 -0.16421427
-0.24446487 0.76279122 -0.15570015
-0.21248175 0.67063934 -0.16241467
-0.24772739 0.7823565 -0.15951632
-0.21479647 0.68625504 -0.16601388
-0.24030621 0.76822662 -0.15646338
-0.20203854 0.65348846 -0.15791564
-0.23182724 0.75030327 -0.1526472
-0.19975635 0.65418965 -0.15791564
-0.23722921 0.77739668 -0.15798986
-0.20197217 0.66980916 -0.16151486
-0.23111518 0.76694155 -0.15570015
-0.19518438 0.6555683 -0.15791564
-0.22731702 0.76398009 -0.15493691
-0.20498492 0.69737792 -0.16781349
-0.22132906 0.75346684 -0.1526472
-0.19060288 0.65691495 -0.15791564
-0.21213651 0.73160785 -0.14806779
-0.19581969 0.68380433 -0.16421427
-0.21606311 0.75499374 -0.1526472
-0.18612699 0.6581971 -0.15791564
-0.21782961 0.7708202 -0.15570015
-0.18394342 0.65881068 -0.15791564
-0.21421717 0.76775616 -0.15493691
-0.18164244 0.6594488 -0.15791564
-0.21049365 0.76471364 -0.15417367
-0.18444899 0.67888451 -0.16241467
-0.20679434 0.76165438 -0.15341043
-0.17703421 0.66070086 -0.15791564
-0.2051498 0.76616448 -0.15417367
-0.22806181 0.85471755 -0.077394299
-0.17970498 0.68015563 -0.16241467
-0.20748605 0.78585804 -0.15798986
-0.17241733 0.66192067 -0.15791564
-0.20770906 0.79797709 -0.16027956
-0.16525957 0.64364332 -0.15341662
-0.19809139 0.77207404 -0.15493691
-0.16779238 0.66310817 -0.15791564
-0.19250731 0.7613408 -0.1526472
-0.16924804 0.67881674 -0.16151486
-0.19174759 0.76962805 -0.15417367
-0.21695012 0.87403727 -0.078788787
-0.16780733 0.68318832 -0.16241467
-0.19280347 0.78554612 -0.15722662
-0.21389802 0.87478918 -0.078788787
-0.16542135 0.68377 -0.16241467
-0.19006002 0.78621435 -0.15722662
-0.1585172 0.66538638 -0.15791564
-0.18913321 0.79451251 -0.15875308
-0.20686579 0.87238395 -0.078440167
-0.15341753 0.65256077 -0.17962041
-0.15630995 0.66590834 -0.15791564
-0.18470439 0.78748977 -0.15722662
-0.15837172 0.68543708 -0.16241467
-0.18725383 0.81108499 -0.16180603
-0.20181629 0.87765521 -0.078788787
-0.14885804 0.65361595 -0.17962041
-0.1551138 0.68218529 -0.16151486
-0.18703139 0.82322037 -0.16409574
-0.19787179 0.87446779 -0.078440167
-0.14657542 0.65413159 -0.17962041
-0.15868784 0.70934683 -0.16781349
-0.18758261 0.83919609 -0.16714869
-0.14699742 0.66802579 -0.15791564
-0.19224036 0.87436008 -0.17401782
-0.14466451 0.66853487 -0.15791564
-0.18005981 0.83280957 -0.16562222
-0.14233014 0.66903573 -0.15791564
-0.17307001 0.81422949 -0.16180603
-0.13742827 0.65611434 -0.17962041
-0.13999373 0.66952854 -0.15791564
-0.16942398 0.81098503 -0.16104279
-0.18663751 0.89729428 -0.080183282
-0.13513699 0.65659004 -0.17962041
-0.13765593 0.67001307 -0.15791564
-0.16422325 0.80003262 -0.15875308
-0.18270658 0.89403629 -0.079834662
-0.13917129 0.68959188 -0.16241467
-0.1575489 0.78135586 -0.15493691
-0.14130928 0.71301222 -0.16781349
-0.15634599 0.78960443 -0.15646338
-0.17106618 0.86792314 -0.077394299
-0.14673407 0.75277746 -0.20550233
-0.13882002 0.71350104 -0.16781349
-0.15134095 0.77858233 -0.15417367
-0.16500844 0.85286593 -0.075999804
-0.12828758 0.67186975 -0.15791564
-0.15009433 0.7868197 -0.15570015
-0.16723295 0.88084072 -0.078440167
-0.1236574 0.65884852 -0.17962041
-0.13395981 0.7144295 -0.16781349
-0.15095812 0.80663633 -0.15951632
-0.16707577 0.89708883 -0.079834662
-0.1272362 0.6918934 -0.16241467
-0.14615372 0.79554695 -0.15722662
-0.16266654 0.88979822 -0.079137415
-0.11951333 0.66157609 -0.18013807
-0.11721332 0.6501413 -0.15251681
-0.14128764 0.78445929 -0.15493691
-0.15815397 0.88251603 -0.078440167
-0.11248802 0.6353575 -0.17289113
-0.11901212 0.67357463 -0.15791564
-0.13991369 0.79268116 -0.15646338
-0.15024774 0.85558969 -0.075999804
-0.13139918 0.75756592 -0.20601997
-0.12397202 0.71623015 -0.16781349
-0.135139 0.78155738 -0.15417367
-0.15469101 0.89930713 -0.079834662
-0.12875414 0.75801992 -0.20601997
-0.11886569 0.70128787 -0.16421427
-0.13568769 0.80138141 -0.15798986
-0.14890349 0.88412386 -0.078440167
-0.12789941 0.77090716 -0.18041074
-0.13032138 0.78635544 -0.15493691
-0.14776081 0.89643341 -0.079486035
-0.11396687 0.70210057 -0.16421427
-0.1288324 0.79455739 -0.15646338
-0.14272749 0.88514185 -0.078440167
-0.12080901 0.7593267 -0.20601997
-0.099906012 0.62935776 -0.14711799
-0.12544334 0.79112417 -0.15570015
-0.13777485 0.87382627 -0.077394299
-0.11815753 0.75974381 -0.20601997
-0.10487963 0.67591935 -0.15791564
-0.12689045 0.81871855 -0.16104279
-0.13472439 0.87430179 -0.077394299
-0.1050576 0.69139409 -0.18738499
-0.10894512 0.71866941 -0.16781349
-0.12462023 0.82303864 -0.16180603
-0.13048524 0.86688596 -0.076697052
-0.10301177 0.69591248 -0.16241467
-0.12002347 0.8118158 -0.15951632
-0.12803799 0.87127858 -0.077045679
-0.11019566 0.76093942 -0.20601997
-0.10405111 0.71939421 -0.16781349
-0.11606734 0.80445737 -0.15798986
-0.12414724 0.86580354 -0.076522738
-0.13194403 0.92132282 -0.048777115
-0.094144903 0.6656599 -0.18013807
-0.095550224 0.67730117 -0.15791564
-0.113947 0.80872589 -0.15875308
-0.1226569 0.87607622 -0.077394299
-0.091820888 0.66598439 -0.18013807
-0.099026255 0.72010314 -0.16781349
-0.11058927 0.80522871 -0.15798986
-0.12067574 0.88439542 -0.078091539
-0.089495435 0.66630089 -0.18013807
-0.093406893 0.69726664 -0.16241467
-0.11090158 0.8289609 -0.16256927
-0.11653776 0.87691116 -0.077394299
-0.099693507 0.76238644 -0.20601997
-0.090972222 0.69758844 -0.16241467
-0.1075004 0.82544923 -0.16180603
-0.11858734 0.91683125 -0.08088053
-0.11906739 0.9230752 -0.048777115
-0.084841594 0.66690946 -0.18013807
-0.086084224 0.6785692 -0.15791564
-0.10165727 0.80244732 -0.15722662
-0.11389441 0.90537876 -0.079834662
-0.11634192 0.92744863 -0.048986461
-0.082276151 0.66528422 -0.17962041
-0.080852829 0.65565658 -0.15251681
-0.098375872 0.79890013 -0.15646338
-0.10589761 0.86621749 -0.076348431
-0.11407071 0.93577939 -0.04940515
-0.079953201 0.6655674 -0.17962041
-0.081345148 0.67915368 -0.15791564
-0.09838403 0.822631 -0.16104279
-0.10428312 0.87845278 -0.077394299
-0.10962951 0.92625481 -0.048881788
-0.074497253 0.63897854 -0.17237349
-0.082123734 0.70653337 -0.16421427
-0.09551169 0.8229695 -0.16104279
-0.10121588 0.87881142 -0.077394299
-0.10548449 0.91869491 -0.048463102
-0.07834328 0.6929841 -0.18686737
-0.07965678 0.70681578 -0.16421427
-0.090443745 0.80378836 -0.15722662
-0.098147407 0.87915945 -0.077394299
-0.10249766 0.92104256 -0.048567772
-0.075923651 0.6932534 -0.18686737
-0.078881025 0.72258735 -0.16781349
-0.0889135 0.81580937 -0.15951632
-0.09379331 0.86761159 -0.076348431
-0.10013764 0.92933786 -0.048986461
-0.080833405 0.76267344 -0.20550233
-0.073901489 0.69960284 -0.16241467
-0.085653625 0.8122099 -0.15875308
-0.092007324 0.87982321 -0.077394299
-0.09772183 0.93762767 -0.04940515
-0.078170486 0.76295102 -0.20550233
-0.073834836 0.72312045 -0.16781349
-0.084012233 0.8242228 -0.16104279
-0.088935785 0.88013899 -0.077394299
-0.093447536 0.92802703 -0.048881788
-0.070181213 0.70939016 -0.19100846
-0.067104071 0.68070829 -0.15791564
-0.079980858 0.81278813 -0.15875308
-0.084702864 0.86854613 -0.076348431
-0.090594068 0.93232334 -0.04909113
-0.072842546 0.7634781 -0.20550233
-0.062629245 0.65764755 -0.15251681
-0.078997791 0.83260715 -0.16256927
-0.085772485 0.91247672 -0.080183282
-0.086755343 0.92466462 -0.048672445
-0.063226007 0.68676686 -0.18479681
-0.062469073 0.68114924 -0.15791564
-0.075162746 0.82113397 -0.16027956
-0.079148233 0.87307119 -0.076697052
-0.084245831 0.93291843 -0.04909113
-0.061509721 0.69468063 -0.18686737
-0.063983947 0.72405857 -0.16781349
-0.071262985 0.80965728 -0.15798986
-0.07506261 0.86143285 -0.075651184
-0.081670545 0.93916196 -0.04940515
-0.065110065 0.76417637 -0.20550233
-0.061455928 0.7242775 -0.16781349
-0.069240414 0.8177141 -0.15951632
-0.073051535 0.87360245 -0.076697052
-0.077561527 0.92948955 -0.048881788
-0.06230858 0.7644099 -0.20550233
-0.055451564 0.68175644 -0.15791564
-0.067510471 0.83361721 -0.16256927
-0.071274593 0.88974029 -0.078091539
-0.073995233 0.92777669 -0.048777115
-0.05964008 0.76462269 -0.20550233
-0.051443961 0.66252619 -0.15341662
-0.063387215 0.81818861 -0.15951632
-0.066950865 0.87409109 -0.076697052
-0.070756435 0.92802936 -0.048777115
-0.056970846 0.76482624 -0.20550233
-0.049246479 0.66269314 -0.15341662
-0.060241368 0.81448907 -0.15875308
-0.063318171 0.8663711 -0.075999804
-0.068114474 0.93423474 -0.04909113
-0.050594885 0.71105552 -0.19100846
-0.048309751 0.68229967 -0.15791564
-0.057539869 0.81468433 -0.15875308
-0.0626636 0.8983773 -0.078788787
-0.065267563 0.94044429 -0.04940515
-0.05176314 0.76519632 -0.20550233
-0.047096204 0.69801074 -0.16151486
-0.055221442 0.8227157 -0.16027956
-0.057946693 0.87473416 -0.076697052
-0.061358288 0.928698 -0.048777115
-0.044640623 0.69596827 -0.18686737
-0.044537373 0.69817865 -0.16151486
-0.052599143 0.82682198 -0.16104279
-0.055735718 0.8908487 -0.078091539
-0.057954237 0.92891663 -0.048777115
-0.040456697 0.66913056 -0.17962041
-0.041161984 0.68276817 -0.15791564
-0.050037567 0.83484817 -0.16256927
-0.051685754 0.87512642 -0.076697052
-0.054198224 0.92314136 -0.048463102
-0.039659247 0.69626993 -0.18686737
-0.040641923 0.71793574 -0.16601388
-0.046681192 0.82717717 -0.16104279
-0.048188351 0.8673442 -0.075999804
-0.051525775 0.93329602 -0.048986461
-0.038177621 0.71183026 -0.19100846
-0.037223864 0.69860679 -0.16151486
-0.043937691 0.82732743 -0.16104279
-0.045727748 0.87545794 -0.076697052
-0.0494656 0.95340753 -0.050033178
-0.034652255 0.68879998 -0.18479681
-0.033156916 0.66369277 -0.15341662
-0.041438386 0.83531916 -0.16256927
-0.043059241 0.8835724 -0.077394299
-0.045075748 0.93163019 -0.048881788
-0.033207178 0.71207947 -0.19100846
-0.031624962 0.68327636 -0.15791564
-0.038016345 0.82762069 -0.16104279
-0.039461948 0.87576282 -0.076697052
-0.04183903 0.93577969 -0.04909113
-0.028772665 0.66973478 -0.17962041
-0.031609505 0.74179685 -0.17141271
-0.035626397 0.83951735 -0.16333251
-0.036073539 0.8679325 -0.075999804
-0.038490243 0.9339245 -0.048986461
-0.026434818 0.6698311 -0.17962041
-0.026854025 0.68348044 -0.15791564
-0.032084756 0.82394236 -0.16027956
-0.032589123 0.85610747 -0.074953936
-0.035619646 0.94003445 -0.049300473
-0.024213569 0.66991508 -0.17962041
-0.025025895 0.69915003 -0.16151486
-0.029771775 0.83581632 -0.16256927
-0.030289123 0.87612802 -0.076697052
-0.032818452 0.95412558 -0.050033178
-0.022259822 0.68544596 -0.18376154
-0.022710888 0.70312858 -0.16241467
-0.02683373 0.83984435 -0.16333251
-0.026859121 0.86427975 -0.075651184
-0.028462609 0.92629099 -0.048567772
-0.020202631 0.69710582 -0.18686737
-0.023901738 0.83993286 -0.16333251
-0.024171855 0.8763181 -0.076697052
-0.025337577 0.93037784 -0.048777115
-0.018556511 0.72807163 -0.19514956
-0.017308777 0.68378884 -0.15791564
-0.021263421 0.85178703 -0.16562222
-0.021400452 0.88834798 -0.077742919
-0.022443388 0.93844348 -0.049195804
-0.016998898 0.76675671 -0.20550233
-0.015261716 0.6994313 -0.16151486
-0.017929412 0.82829934 -0.16104279
-0.018040864 0.86849445 -0.075999804
-0.019249234 0.94250977 -0.04940515
-0.013600593 0.72818106 -0.19514956
-0.01265364 0.68389076 -0.15791564
-0.015322852 0.8440603 -0.16409574
-0.014940474 0.86456794 -0.075651184
-0.016260484 0.95055628 -0.049823835
-0.010948221 0.71276921 -0.19100846
-0.010266808 0.68393075 -0.15791564
-0.012640028 0.85195863 -0.16562222
-0.012073142 0.86461276 -0.075651184
-0.012806125 0.94062185 -0.049300473
-0.0086822035 0.74241924 -0.17141271
-0.0095767472 0.844145 -0.16409574
-0.0092638349 0.88457245 -0.077394299
-0.009398655 0.91269904 -0.047835067
-0.0060966313 0.71282721 -0.19100846
-0.0057707191 0.7034716 -0.16241467
-0.0067145312 0.83631945 -0.16256927
-0.0064157331 0.89655226 -0.078440167
-0.0062944461 0.9247095 -0.048463102
-0.00356906 0.70511681 -0.1889379
-0.003296891 0.69959003 -0.16151486
-0.0037953665 0.83633775 -0.16256927
-0.0031982798 0.8726607 -0.076348431
-0.0031065056 0.9367094 -0.04909113
-0.0011196709 0.71285242 -0.19100846
-0.00090042612 0.85990494 -0.16714869
1.0548999e-08 0.88462096 -0.077394299
0.00016165162 0.92872554 -0.048672445
0.0015252805 0.72830647 -0.19514956
0.0016314613 0.71908331 -0.16601388
0.0022202618 0.84812301 -0.16485898
0.0030599104 0.8766461 -0.076697052
0.0035586106 0.92672133 -0.048567772
0.0040677292 0.7282967 -0.19514956
0.0052049621 0.85203648 -0.16562222
0.0061758291 0.88459939 -0.077394299
0.0067488942 0.9207117 -0.048253756
0.0066515692 0.7190544 -0.16601388
0.0081412224 0.84808677 -0.16485898
0.0090969391 0.86863422 -0.075999804
0.0098023023 0.92068422 -0.048253756
0.0090246564 0.72825217 -0.19514956
0.0089627262 0.70343816 -0.16241467
0.010928011 0.8460921 -0.16447736
0.012087093 0.87656808 -0.076697052
0.013411564 0.94860327 -0.049719162
0.011689595 0.73594266 -0.19722012
0.011545531 0.71899247 -0.16601388
0.013720542 0.83623385 -0.16256927
0.015284325 0.88448894 -0.077394299
0.016278127 0.93257797 -0.048881788
0.013796904 0.6994617 -0.16151486
0.017186115 0.86366093 -0.16791193
0.01812364 0.87247837 -0.076348431
0.019653708 0.93051523 -0.048777115
0.016116187 0.69941211 -0.16151486
0.019971425 0.85378218 -0.16600384
0.021265108 0.87639344 -0.076697052
0.022885947 0.93643492 -0.04909113
0.023326579 0.87333679 -0.16982001
0.024103265 0.86834735 -0.075999804
0.025597151 0.91638452 -0.048044413
0.022885906 0.76660359 -0.20550233
0.025692606 0.8457725 -0.16447736
0.028130207 0.90012062 -0.078788787
0.029144745 0.92227328 -0.048358425
0.023759061 0.71245724 -0.19100846
0.029243127 0.8633368 -0.16791193
0.030026514 0.86417556 -0.075651184
0.032643918 0.93015009 -0.048777115
0.02823725 0.76642513 -0.20550233
0.031816512 0.85145813 -0.16562222
0.033499915 0.87601113 -0.076697052
0.035574697 0.92604512 -0.048567772
0.035518087 0.87292594 -0.16982001
0.036404513 0.8758952 -0.076697052
0.038890868 0.92791092 -0.048672445
0.038911838 0.880642 -0.17134649
0.040179033 0.89168578 -0.078091539
0.041676879 0.91779333 -0.048149083
0.040114854 0.84128028 -0.16371413
0.042905059 0.88357985 -0.077394299
0.045172825 0.92362696 -0.048463102
0.044456393 0.86858475 -0.16905677
0.045988884 0.88342476 -0.077394299
0.048547793 0.92945576 -0.048777115
0.04797785 0.88019466 -0.17134649
0.048630469 0.87530154 -0.076697052
0.05156986 0.92529225 -0.048567772
0.051659562 0.88785255 -0.17287296
0.051215906 0.86717075 -0.075999804
0.054842226 0.92310327 -0.048463102
0.054516908 0.88374782 -0.17210972
0.054490805 0.87096369 -0.076348431
0.057061099 0.90695965 -0.047625724
0.057089951 0.87571579 -0.17058325
0.05700554 0.86281592 -0.075651184
0.058616415 0.88484365 -0.046474334
0.052161306 0.76710564 -0.20601997
0.059725426 0.87160432 -0.16982001
0.058763135 0.84672135 -0.074256696
0.057534937 0.82486117 -0.043334179
0.057194185 0.81587315 -0.014276069
0.06361407 0.88313961 -0.17210972
0.062297717 0.85445946 -0.074953936
0.058517043 0.79876035 -0.041973442
0.059014369 0.80170846 -0.014031734
0.057515804 0.76672274 -0.20601997
0.066105105 0.87508148 -0.17058325
0.065279774 0.85423678 -0.074953936
0.059164401 0.77067155 -0.040508036
0.068849683 0.87093109 -0.16982001
0.06794396 0.85003167 -0.074605316
0.062676825 0.7824164 -0.041136064
0.07238207 0.87852454 -0.17134649
0.070247814 0.84184736 -0.073908068
0.065074556 0.77821225 -0.040926725
0.075264595 0.87434131 -0.17058325
0.069043584 0.79395938 -0.06972459
0.067926608 0.77796853 -0.040926725
0.079367615 0.88580573 -0.17287296
0.070916757 0.7837922 -0.068853036
0.083187521 0.89334244 -0.17439944
0.073652476 0.78353977 -0.068853036
0.073355831 0.77747536 -0.040926725
0.086305171 0.89304662 -0.17439944
0.075807147 0.77732897 -0.068330102
0.088639513 0.88492596 -0.17287296
0.078319237 0.77507746 -0.068155795
0.092786267 0.89634413 -0.17516267
0.096070707 0.89599806 -0.17516267
0.083300106 0.77055007 -0.067807168
0.10049468 0.9073652 -0.17745239
0.094168477 0.8435179 -0.074256696
0.10216736 0.89532334 -0.17516267
0.094233595 0.81944883 -0.072164953
0.10376129 0.88328052 -0.17287296
0.094278947 0.79537237 -0.070073217
0.1084154 0.89458829 -0.17516267
0.095123522 0.77921683 -0.068678722
0.11299525 0.90589339 -0.17745239
0.097843125 0.77888 -0.068678722
0.11815537 0.92107177 -0.18050532
0.10056116 0.77853376 -0.068678722
0.12059981 0.91481453 -0.17936046
0.10327834 0.77817798 -0.068678722
0.1216855 0.89882392 -0.17630751
0.11298802 0.82914048 -0.073210821
0.12536284 0.90228277 -0.17707075
0.13072672 0.91738874 -0.1801237
0.13506342 0.92469728 -0.18165016
0.13712813 0.91645378 -0.1801237
0.14016668 0.91599393 -0.1801237
0.14366679 0.91743869 -0.18050532
0.14856958 0.92858881 -0.18279503
0.15197183 0.928038 -0.18279503
0.15618269 0.93331087 -0.18393987
0.15646233 0.91534334 -0.18050532
0.14980991 0.87184364 -0.077394299
0.16084549 0.9225558 -0.1820318
0.15613967 0.89096677 -0.079137415
0.16544089 0.92972022 -0.18355827
0.167667 0.93748683 -0.083320886
0.16868545 0.92913705 -0.18355827
0.16521688 0.90553522 -0.080531903
0.16799571 0.9073078 -0.17936046
0.16837701 0.90495294 -0.080531903
0.17189038 0.91057414 -0.1801237
0.16782139 0.88478494 -0.078788787
0.17432538 0.90611291 -0.17936046
0.17393401 0.8998431 -0.080183282
0.17657486 0.90167648 -0.17859723
0.16691762 0.84843355 -0.075651184
0.18125755 0.9087559 -0.1801237
0.17770606 0.88691705 -0.079137415
0.18989873 0.93505341 -0.18546635
0.18080114 0.88629133 -0.079137415
0.18389359 0.88565481 -0.079137415
0.17792331 0.84212166 -0.075302556
0.19007257 0.88434935 -0.079137415
0.19826367 0.90703768 -0.08122915
0.20127025 0.90637535 -0.08122915
0.20427504 0.90570283 -0.08122915
0.20387442 0.88944805 -0.079834662
0.20516965 0.88096923 -0.079137415
0.21007855 0.88800317 -0.079834662
0.21705794 0.90272468 -0.08122915
0.22649947 0.90040207 -0.08122915
0.24992476 0.95198047 -0.086109869
0.24493338 0.88380045 -0.11260728
0.29596695 0.93868667 -0.086109869
0.31556016 0.93228269 -0.086109869
0.32898843 0.95221138 -0.15956318
16.113937 13.492476 0.36684957
16.179386 13.451488 0.36726844
16.261713 13.424206 0.36807123
-0.77681506 0.084937662 -0.18041074
-0.82300466 0.092750937 -0.19120839
-0.77589923 0.092932485 -0.18041074
-0.73815036 0.20817991 -0.20550233
-0.64389831 0.18646041 -0.17962041
-0.66174692 0.19426084 -0.18479681
-0.67587852 0.20097449 -0.1889379
-0.66037464 0.1988758 -0.18479681
-0.65971148 0.20106462 -0.18479681
-0.65900558 0.20336623 -0.18479681
-0.63915044 0.20213671 -0.17962041
-0.73356879 0.26931933 -0.18041074
-0.73262417 0.27187851 -0.18041074
-0.69517839 0.26074654 -0.17141271
-0.69426394 0.26317161 -0.17141271
-0.71153903 0.27256441 -0.17591172
-0.6997264 0.27070373 -0.17321232
-0.69156432 0.27018604 -0.17141271
-0.60626149 0.23746921 -0.079946294
-0.68699175 0.27116731 -0.1705129
-0.68966126 0.27500731 -0.17141271
-0.66339064 0.26721954 -0.16511407
-0.69128555 0.28140488 -0.17231251
-0.67948496 0.27937001 -0.16961309
-0.67850566 0.28174016 -0.16961309
-0.59378105 0.24716711 -0.078971341
-0.69554037 0.29152134 -0.17411213
-0.6765722 0.2863521 -0.16961309
-0.59939462 0.25430429 -0.079946294
-0.65769804 0.28093895 -0.16511407
-0.59124863 0.25316507 -0.078971341
-0.6746074 0.29095075 -0.16961309
-0.5903613 0.25522739 -0.078971341
-0.703228 0.30606407 -0.20550233
-0.69502825 0.30263957 -0.17501192
-0.57855076 0.25252217 -0.077508911
-0.71532041 0.31459942 -0.18041074
-0.58125418 0.25624239 -0.077996388
-0.61277765 0.27180156 -0.17962041
-0.67859602 0.30127925 -0.17141271
-0.59486508 0.26472652 -0.079946294
-0.61182511 0.27393892 -0.17962041
-0.64197385 0.28770676 -0.16241467
-0.58307266 0.26192105 -0.078483865
-0.61086518 0.27607277 -0.17962041
-0.66942686 0.30267987 -0.16961309
-0.59666556 0.27040836 -0.080433771
-0.60994637 0.278097 -0.17962041
-0.65063769 0.29692423 -0.16511407
-0.59571803 0.27248949 -0.080433771
-0.58791232 0.27053368 -0.17340876
-0.64605725 0.29756293 -0.16421427
-0.59836775 0.27623132 -0.080921248
-0.58696443 0.27258423 -0.17340876
-0.63794607 0.29653066 -0.16241467
-0.6009987 0.27999496 -0.081408732
-0.58251071 0.27299204 -0.17237349
-0.64043558 0.30041087 -0.16331446
-0.59283197 0.27871269 -0.080433771
-0.58504713 0.27667537 -0.17340876
-0.64290577 0.3043122 -0.16421427
-0.59185547 0.28078035 -0.080433771
-0.60499996 0.28869975 -0.17962041
-0.63485879 0.30308396 -0.16241467
-0.58375835 0.27931431 -0.079458818
-0.58315033 0.28065127 -0.17340876
-0.6513536 0.31375533 -0.16691369
-0.58635515 0.28307644 -0.079946294
-0.60302079 0.29281119 -0.17962041
-0.63973814 0.31091616 -0.16421427
-0.56394768 0.27469021 -0.077021435
-0.57770711 0.28301567 -0.17237349
-0.64214838 0.31486326 -0.16511407
-0.56298542 0.27665707 -0.077021435
-0.57671571 0.28503051 -0.17237349
-0.64803231 0.32055888 -0.16691369
-0.58691573 0.29096457 -0.080433771
-0.59992146 0.29910988 -0.17962041
-0.65039682 0.32455927 -0.16781349
-0.58944744 0.2947872 -0.080921248
-0.5781635 0.29078585 -0.17340876
-0.62140954 0.31280836 -0.16061506
-0.58132547 0.29326656 -0.079946294
-0.59781873 0.30329069 -0.17962041
-0.64116478 0.32556283 -0.16601388
-0.57322133 0.29169294 -0.078971341
-0.5967564 0.30537564 -0.17962041
-0.62614858 0.32069221 -0.16241467
-0.5721997 0.29369199 -0.078971341
-0.57508677 0.29682422 -0.17340876
-0.61809987 0.31929839 -0.16061506
-0.59237909 0.3065356 -0.081896208
-0.59466404 0.30943042 -0.17962041
-0.63086474 0.32854736 -0.16421427
-0.57375938 0.29931667 -0.079458818
-0.61758536 0.32396448 -0.18686737
-0.63322258 0.33244932 -0.16511407
-0.57973814 0.30501497 -0.080433771
-0.5685848 0.30092314 -0.17237349
-0.62861389 0.33283377 -0.16421427
-0.57165569 0.3033151 -0.079458818
-0.550488 0.29380965 -0.16719711
-0.62738967 0.33513567 -0.16421427
-0.59154177 0.31665021 -0.082383685
-0.56987238 0.30671626 -0.17340876
-0.62621605 0.33732349 -0.16421427
-0.55898958 0.30174041 -0.077996388
-0.56540245 0.30686066 -0.17237349
-0.61476028 0.33392644 -0.16151486
-0.58234245 0.31697625 -0.081408732
-0.58805335 0.32181638 -0.17962041
-0.63751924 0.34917614 -0.16781349
-0.57079118 0.31327629 -0.079946294
-0.56324637 0.31080043 -0.17237349
-0.63629657 0.35139924 -0.16781349
-0.57664168 0.31911153 -0.080921248
-0.53514743 0.29773691 -0.16409127
-0.59760898 0.3327615 -0.15791564
-0.57205725 0.319188 -0.080433771
-0.58465117 0.32795659 -0.17962041
-0.63382775 0.35583299 -0.16781349
-0.57093954 0.32118294 -0.080433771
-0.5599609 0.3166815 -0.17237349
-0.60544688 0.34268489 -0.16061506
-0.56981492 0.32317394 -0.080433771
-0.56220847 0.32054806 -0.17340876
-0.61101735 0.34865934 -0.16241467
-0.55489713 0.31727833 -0.078483865
-0.60463315 0.34753913 -0.18686737
-0.58276957 0.33524263 -0.15521623
-0.58130366 0.33507475 -0.082383685
-0.59171045 0.34314063 -0.15791564
-0.56296682 0.32712844 -0.079946294
-0.55882096 0.32641771 -0.17340876
-0.59050912 0.34520382 -0.15791564
-0.57209861 0.33511165 -0.081408732
-0.58930051 0.34726304 -0.15791564
-0.57092547 0.3371065 -0.081408732
-0.5365932 0.31847903 -0.16719711
-0.60155076 0.35717466 -0.16151486
-0.5834524 0.3471176 -0.083358638
-0.5753262 0.34405276 -0.17962041
-0.60030031 0.3592723 -0.16151486
-0.58223718 0.34915215 -0.083358638
-0.55426729 0.3340916 -0.17340876
-0.58569348 0.3533127 -0.15791564
-0.56742388 0.34296766 -0.081408732
-0.55309767 0.33602434 -0.17340876
-0.61442876 0.37357837 -0.16601388
-0.55605161 0.3387495 -0.079946294
-0.54862642 0.33593521 -0.17237349
-0.59318203 0.36350244 -0.16061506
-0.57178247 0.35107526 -0.082383685
-0.57046634 0.35205209 -0.17962041
-0.56869745 0.35123459 -0.15431643
-0.5806815 0.35933664 -0.083846115
-0.5298633 0.32955423 -0.16719711
-0.59393871 0.36969423 -0.16151486
-0.57605499 0.35926035 -0.083358638
-0.56811887 0.35582781 -0.17962041
-0.57956487 0.36327845 -0.15791564
-0.72852451 0.45682532 -0.16714869
-0.5581128 0.35051078 -0.080921248
-0.56681097 0.35790756 -0.17962041
-0.60794932 0.38403264 -0.16601388
-0.69697499 0.44060904 -0.16027956
-0.5568859 0.35245687 -0.080921248
-0.48406559 0.3080276 -0.15373853
-0.59996283 0.38207108 -0.16421427
-0.71199054 0.45358795 -0.16409574
-0.58236581 0.37157974 -0.084821068
-0.56429839 0.36185607 -0.17962041
-0.57566446 0.36942813 -0.15791564
-0.72692388 0.46667686 -0.16791193
-0.57772583 0.371463 -0.084333591
-0.54031599 0.34914479 -0.17237349
-0.58746248 0.37990114 -0.16151486
-0.73188412 0.47347686 -0.16943841
-0.48081353 0.31307966 -0.15373853
-0.59592897 0.38833284 -0.16421427
-0.72364831 0.47174019 -0.16791193
-0.47971773 0.31475613 -0.15373853
-0.58479601 0.383993 -0.16151486
-0.71215171 0.46779609 -0.16562222
-0.47861609 0.31642875 -0.15373853
-0.557513 0.36872992 -0.15431643
-0.71706289 0.4746137 -0.16714869
-0.47756419 0.31801406 -0.15373853
-0.56919557 0.37931922 -0.15791564
-0.7220192 0.48134506 -0.16867517
-0.58081102 0.38999435 -0.16151486
-0.71381581 0.47948343 -0.16714869
-0.55535454 0.37543812 -0.17962041
-0.56653357 0.3832837 -0.15791564
-0.70238239 0.47536981 -0.16485898
-0.47420782 0.3229976 -0.15373853
-0.56519222 0.38525897 -0.15791564
-0.69098657 0.47118238 -0.16256927
-0.6218574 0.42483875 -0.065889739
-0.56384397 0.3872295 -0.15791564
-0.68610138 0.47136796 -0.16180603
-0.60067636 0.41345114 -0.063798003
-0.47194129 0.32630035 -0.15373853
-0.54005349 0.37367177 -0.15161701
-0.68122315 0.47152546 -0.16104279
-0.6188764 0.42916963 -0.065889739
-0.55005848 0.38315558 -0.17962041
-0.57391614 0.40007159 -0.16151486
-0.69245595 0.48288438 -0.16409574
-0.60430831 0.42219883 -0.064495243
-0.54871774 0.38507318 -0.17962041
-0.58527404 0.41103247 -0.16511407
-0.68112767 0.47852686 -0.16180603
-0.59957236 0.42201218 -0.06414663
-0.54247415 0.38380882 -0.15341662
-0.67304319 0.4763647 -0.16027956
-0.64035249 0.45406619 -0.068678722
-0.56804556 0.40458485 -0.18686737
-0.54430485 0.38796228 -0.15431643
-0.67137629 0.47871119 -0.16027956
-0.60633898 0.43313625 -0.065192491
-0.54465532 0.39079803 -0.17962041
-0.54294735 0.38985988 -0.15431643
-0.67607927 0.48563325 -0.16180603
-0.63716692 0.45852563 -0.068678722
-0.52136832 0.37685335 -0.17237349
-0.55428475 0.40079314 -0.15791564
-0.6711989 0.48568845 -0.16104279
-0.63556242 0.46074694 -0.068678722
-0.54198259 0.39449635 -0.17962041
-0.55288243 0.4027254 -0.15791564
-0.6822781 0.49716106 -0.16409574
-0.60828364 0.44405583 -0.065889739
-0.55147326 0.40465283 -0.15791564
-0.66471207 0.48792246 -0.16027956
-0.60030937 0.44145516 -0.065192491
-0.53921527 0.39827049 -0.17962041
-0.56259423 0.41584224 -0.16151486
-0.65984774 0.48790517 -0.15951632
-0.58595699 0.43406036 -0.063798003
-0.52675194 0.39219984 -0.15161701
-0.65499169 0.48785999 -0.15875308
-0.60679388 0.45278448 -0.066238366
-0.53642172 0.40202522 -0.17962041
-0.5284977 0.39637464 -0.15251681
-0.6689887 0.50192577 -0.16256927
-0.59565371 0.44771719 -0.065192491
-0.53501517 0.40389511 -0.17962041
-0.5333305 0.40291581 -0.15431643
-0.65783489 0.49715564 -0.16027956
-0.57820255 0.43776715 -0.063449383
-0.55673349 0.42365652 -0.16151486
-0.66234398 0.50420558 -0.16180603
-0.55132264 0.42045182 -0.060660396
-0.53057563 0.40653661 -0.15431643
-0.64197016 0.49206719 -0.15722662
-0.56572801 0.43441188 -0.062403511
-0.53089923 0.40929028 -0.17962041
-0.50762355 0.39162877 -0.14801779
-0.65587711 0.50618821 -0.16104279
-0.54844803 0.42419469 -0.060660396
-0.52939552 0.41123337 -0.17962041
-0.55241638 0.42927054 -0.16151486
-0.64781821 0.50376797 -0.15951632
-0.56896824 0.44324875 -0.063100755
-0.53856426 0.42168137 -0.15791564
-0.65532929 0.51328975 -0.16180603
-0.57682228 0.45261168 -0.06414663
-0.51879841 0.40898761 -0.15251681
-0.63195467 0.49855053 -0.15646338
-0.55960745 0.4422684 -0.062403511
-0.54789078 0.43503183 -0.16151486
-0.63337249 0.50308555 -0.15722662
-0.55190158 0.43915948 -0.061706264
-0.51288664 0.41016531 -0.15161701
-0.63774478 0.51019901 -0.15875308
-0.57524049 0.46101931 -0.064495243
-0.51752257 0.41684267 -0.15341662
-0.64207488 0.51734936 -0.16027956
-0.5798291 0.46803012 -0.065192491
-0.52074075 0.42213926 -0.17962041
-0.51909107 0.42110205 -0.15431643
-0.62806952 0.50969058 -0.15722662
-0.57819182 0.47005129 -0.065192491
-0.52969062 0.43277541 -0.15791564
-0.61412561 0.50194049 -0.15417367
-0.57038122 0.46701786 -0.064495243
-0.52825254 0.43452957 -0.15791564
-0.63055903 0.5190537 -0.15875308
-0.57182187 0.47154123 -0.064843871
-0.5117259 0.42393866 -0.15341662
-0.63478899 0.52626359 -0.16027956
-0.56710702 0.47098836 -0.064495243
-0.54607505 0.45578039 -0.16421427
-0.62381512 0.52103549 -0.15798986
-0.56232077 0.47050682 -0.06414663
-0.50860465 0.42767829 -0.15341662
-0.62800205 0.528265 -0.15951632
-0.56981647 0.48016992 -0.065192491
-0.49825954 0.4218078 -0.1507172
-0.61126488 0.51765698 -0.15570015
-0.56822103 0.48205689 -0.065192491
-0.52058858 0.44368261 -0.15791564
-0.61850876 0.52732354 -0.15798986
-0.55146909 0.47099903 -0.063449383
-0.55156887 0.47342002 -0.16781349
-0.60474807 0.51924789 -0.15493691
-0.56794763 0.48851198 -0.065541118
-0.51747841 0.44730622 -0.15791564
-0.61481243 0.53162861 -0.15798986
-0.58732224 0.50875443 -0.067981474
-0.53657305 0.46692938 -0.16421427
-0.60110843 0.52345705 -0.15493691
-0.57052904 0.49770391 -0.066238366
-0.51442176 0.45081806 -0.15791564
-0.60527438 0.53062433 -0.15646338
-0.53594047 0.47066933 -0.062403511
-0.51292396 0.4525215 -0.15791564
-0.60636181 0.53533274 -0.15722662
-0.5522036 0.4883765 -0.064495243
